0.3137207,0.3137207,0.3137207,0.3137207,0.3137207,0.3137207,-0.31373024,0.3137207,0.94117165,0.94117165,1.5686226,2.1960735,2.1960735,2.1960735,0.94117165,0.3137207,-0.31373024,-0.9411812,-0.9411812,-1.5686321,-2.823534,-4.078436,-5.9607887,-7.8431416,-9.725494,-12.862749,-15.372553,-18.509808,-21.019611,-22.901964,-24.784317,-26.039219,-26.66667,-26.039219,-25.411768,-24.156866,-21.647062,-19.137259,-16.627455,-13.4902,-10.352945,-7.2156906,-4.705887,-2.823534,-0.9411812,-0.31373024,0.3137207,0.3137207,0.3137207,0.94117165,0.94117165,0.94117165,1.5686226,1.5686226,2.1960735,2.1960735,2.1960735,2.1960735,2.1960735,2.1960735,2.1960735,2.1960735,1.5686226,1.5686226,1.5686226,0.94117165,0.3137207,-0.31373024,-1.5686321,-2.196083,-2.823534,-3.450985,-4.078436,-4.705887,-5.333338,-7.2156906,-7.2156906,-8.4705925,-10.352945,-10.980396,-12.862749,-14.745102,-16.627455,-17.882357,-19.76471,-21.019611,-22.274513,-22.901964,-23.529415,-24.156866,-23.529415,-23.529415,-22.901964,-22.901964,-23.529415,-23.529415,-24.156866,-24.784317,-24.784317,-24.784317,-24.784317,-23.529415,-22.901964,-22.901964,-22.274513,-21.647062,-21.019611,-20.39216,-19.76471,-19.137259,-18.509808,-17.882357,-17.254906,-16.627455,-16.000004,-16.000004,-15.372553,-15.372553,-15.372553,-16.000004,-16.627455,-16.627455,-16.627455,-16.627455,-16.627455,-16.000004,-16.627455,-17.254906,-18.509808,-19.137259,-19.76471,-19.76471,-18.509808,-17.882357,-16.000004,-14.745102,-13.4902,-12.235298,-10.980396,-9.725494,-8.4705925,-7.8431416,-6.5882397,-4.705887,-2.823534,-0.9411812,0.94117165,2.8235245,4.0784264,5.3333282,6.58823,7.215681,8.470583,9.098034,10.352936,10.980387,12.86274,13.4901905,15.372543,16.627445,16.627445,17.882347,18.509798,19.137249,19.7647,19.7647,19.7647,19.7647,19.137249,19.137249,17.882347,16.627445,15.372543,14.745092,13.4901905,12.86274,11.607838,12.235289,12.235289,12.86274,14.117641,14.745092,15.999994,16.627445,17.882347,18.509798,19.137249,19.7647,20.39215,21.019602,20.39215,20.39215,19.137249,17.882347,15.999994,14.117641,12.235289,9.725485,7.215681,5.3333282,3.4509754,1.5686226,0.94117165,0.3137207,0.3137207,0.3137207,0.3137207,0.3137207,0.3137207,0.31373024,1.568613,2.1960735,2.8235245,3.4509754,3.4509754,4.0784264,4.7058773,4.7058773,5.3333282,5.3333282,5.960779,7.215681,7.843132,9.725485,11.607838,12.86274,15.372543,15.999994,17.254896,17.254896,16.627445,16.627445,14.745092,13.4901905,12.86274,9.098034,4.7058773,1.5686226,0.3137207,-0.9411812,-1.5686321,-4.078436,-5.333338,-6.5882397,-5.9607887,-5.333338,-2.823534,-0.9411812,-0.31373024,0.3137207,0.3137207,0.3137207,0.3137207,0.3137207,0.3137207,0.3137207
0.3137207,0.3137207,0.3137207,0.3137207,0.3137207,0.3137207,-0.31373024,-0.9411812,-0.31373024,0.94117165,0.94117165,2.1960735,2.1960735,2.1960735,0.94117165,0.3137207,-0.31373024,-1.5686321,-1.5686321,-2.823534,-4.078436,-5.333338,-5.9607887,-8.4705925,-10.352945,-12.862749,-15.372553,-17.882357,-21.019611,-22.901964,-24.784317,-26.039219,-26.66667,-26.039219,-24.784317,-24.156866,-22.901964,-19.76471,-16.627455,-14.117651,-10.980396,-8.4705925,-5.9607887,-3.450985,-1.5686321,-0.9411812,-0.31373024,0.3137207,0.3137207,-0.31373024,0.3137207,0.94117165,0.94117165,1.5686226,2.1960735,2.1960735,2.1960735,2.1960735,2.1960735,1.5686226,1.5686226,1.5686226,0.94117165,0.94117165,0.3137207,-0.31373024,-0.9411812,-1.5686321,-2.823534,-4.078436,-4.705887,-5.333338,-5.9607887,-7.8431416,-8.4705925,-9.725494,-9.725494,-11.607847,-12.235298,-13.4902,-15.372553,-16.627455,-17.882357,-19.76471,-21.019611,-22.274513,-22.901964,-23.529415,-24.784317,-24.156866,-24.156866,-24.784317,-24.784317,-24.784317,-24.784317,-25.411768,-26.039219,-26.66667,-27.29412,-27.29412,-26.66667,-26.039219,-26.039219,-24.784317,-24.156866,-23.529415,-23.529415,-22.901964,-21.647062,-21.019611,-20.39216,-19.76471,-19.137259,-18.509808,-18.509808,-17.882357,-17.254906,-17.882357,-17.882357,-17.254906,-17.254906,-17.882357,-17.882357,-17.254906,-17.254906,-17.882357,-18.509808,-19.137259,-19.76471,-21.019611,-21.019611,-21.019611,-19.76471,-19.137259,-17.254906,-16.000004,-14.117651,-12.862749,-11.607847,-10.980396,-9.725494,-9.098043,-7.8431416,-6.5882397,-5.333338,-2.823534,-1.5686321,0.3137207,1.5686226,3.4509754,4.0784264,5.3333282,6.58823,7.843132,9.098034,10.352936,11.607838,13.4901905,14.745092,15.999994,17.254896,17.882347,17.882347,18.509798,19.137249,19.7647,19.7647,19.7647,19.137249,18.509798,17.254896,16.627445,15.372543,14.117641,12.86274,11.607838,10.980387,10.980387,11.607838,12.235289,12.86274,14.117641,15.372543,15.999994,17.254896,17.882347,17.882347,18.509798,19.137249,18.509798,19.137249,18.509798,17.882347,16.627445,15.372543,13.4901905,11.607838,9.725485,7.215681,5.960779,3.4509754,2.8235245,1.5686226,0.94117165,0.3137207,0.3137207,0.3137207,0.3137207,0.3137207,0.3137207,0.94117165,1.5686226,2.1960735,2.8235245,3.4509754,4.0784264,4.0784264,4.7058773,5.3333282,5.960779,6.58823,7.215681,9.098034,9.725485,11.607838,12.86274,15.372543,15.999994,16.627445,16.627445,16.627445,15.372543,15.372543,14.117641,12.86274,9.725485,5.3333282,2.1960735,0.3137207,-0.9411812,-2.196083,-4.078436,-4.705887,-5.9607887,-5.9607887,-5.333338,-2.823534,-0.9411812,-0.31373024,0.3137207,0.3137207,0.3137207,0.3137207,0.3137207,0.3137207,0.3137207
0.3137207,0.3137207,0.3137207,0.3137207,0.3137207,0.3137207,-0.9411812,-0.9411812,0.3137207,0.3137207,0.3137207,0.94117165,1.5686226,1.5686226,0.94117165,-0.31373024,-1.5686321,-2.196083,-2.823534,-3.450985,-4.705887,-5.9607887,-6.5882397,-8.4705925,-10.352945,-12.862749,-15.372553,-17.882357,-20.39216,-22.901964,-24.156866,-25.411768,-26.039219,-26.039219,-24.784317,-23.529415,-22.274513,-20.39216,-17.882357,-14.117651,-11.607847,-8.4705925,-5.9607887,-4.078436,-2.196083,-1.5686321,-0.9411812,-0.9411812,-0.31373024,-0.31373024,-0.31373024,0.3137207,0.94117165,1.5686226,2.1960735,2.1960735,2.1960735,2.1960735,1.5686226,1.5686226,1.5686226,0.94117165,0.94117165,0.3137207,-0.31373024,-1.5686321,-2.196083,-3.450985,-4.705887,-5.333338,-6.5882397,-7.8431416,-8.4705925,-9.725494,-11.607847,-12.235298,-12.862749,-13.4902,-14.745102,-16.000004,-16.627455,-18.509808,-19.76471,-21.019611,-22.274513,-23.529415,-24.156866,-24.784317,-25.411768,-26.039219,-26.039219,-26.039219,-26.039219,-26.039219,-26.66667,-27.29412,-27.921572,-28.549023,-29.176474,-29.176474,-29.176474,-28.549023,-27.921572,-27.29412,-26.66667,-26.039219,-25.411768,-24.784317,-23.529415,-22.901964,-22.274513,-21.647062,-21.019611,-20.39216,-20.39216,-19.137259,-19.76471,-19.137259,-19.137259,-19.76471,-19.76471,-19.137259,-19.137259,-19.76471,-19.76471,-19.137259,-20.39216,-21.019611,-21.019611,-22.274513,-22.901964,-22.274513,-21.647062,-20.39216,-18.509808,-16.627455,-15.372553,-14.117651,-12.862749,-12.235298,-11.607847,-10.352945,-9.725494,-8.4705925,-6.5882397,-5.333338,-3.450985,-1.5686321,0.3137207,0.94117165,2.8235245,4.0784264,4.7058773,5.960779,7.843132,9.098034,10.980387,12.235289,14.117641,15.372543,15.999994,17.254896,17.882347,18.509798,19.137249,19.137249,19.137249,19.137249,19.137249,17.882347,17.254896,15.999994,14.745092,13.4901905,12.235289,10.980387,10.352936,10.352936,10.980387,11.607838,12.86274,13.4901905,14.117641,15.372543,15.372543,16.627445,16.627445,16.627445,17.254896,16.627445,17.254896,16.627445,15.999994,15.372543,14.117641,12.235289,10.980387,9.098034,7.215681,5.3333282,3.4509754,2.1960735,2.1960735,1.5686226,0.94117165,0.3137207,0.3137207,0.3137207,0.3137207,0.3137207,0.94117165,1.5686226,2.1960735,2.8235245,3.4509754,3.4509754,4.7058773,5.3333282,5.960779,6.58823,7.215681,8.470583,9.725485,10.352936,12.235289,14.117641,14.745092,15.372543,15.999994,15.999994,15.999994,15.372543,14.745092,13.4901905,12.86274,9.725485,5.960779,2.8235245,0.3137207,-0.9411812,-2.196083,-2.823534,-4.705887,-5.9607887,-5.9607887,-5.333338,-4.078436,-1.5686321,-0.31373024,0.3137207,0.3137207,0.3137207,0.3137207,0.3137207,0.3137207,0.3137207
0.3137207,0.3137207,0.3137207,0.3137207,0.3137207,0.3137207,-0.31373024,-1.5686321,-0.9411812,-0.31373024,0.3137207,0.94117165,1.5686226,0.94117165,0.3137207,-0.31373024,-0.9411812,-2.196083,-3.450985,-4.705887,-5.333338,-5.9607887,-7.2156906,-8.4705925,-10.980396,-12.862749,-14.745102,-17.254906,-19.76471,-21.647062,-22.901964,-24.156866,-24.784317,-24.784317,-24.156866,-22.274513,-21.019611,-19.76471,-17.882357,-14.745102,-10.980396,-8.4705925,-5.9607887,-4.078436,-3.450985,-1.5686321,-1.5686321,-0.9411812,-0.9411812,-0.31373024,-0.31373024,0.94117165,0.94117165,1.5686226,2.1960735,2.1960735,2.1960735,1.5686226,1.5686226,0.94117165,0.3137207,0.3137207,-0.31373024,-0.9411812,-1.5686321,-2.196083,-3.450985,-4.705887,-5.9607887,-7.2156906,-8.4705925,-10.352945,-10.980396,-12.235298,-13.4902,-14.745102,-16.000004,-16.000004,-17.254906,-18.509808,-19.137259,-20.39216,-21.647062,-22.901964,-24.156866,-24.784317,-25.411768,-26.039219,-26.66667,-26.66667,-26.66667,-26.66667,-26.66667,-27.29412,-27.921572,-28.549023,-29.803925,-30.431376,-31.058826,-31.686277,-31.058826,-31.058826,-30.431376,-29.803925,-28.549023,-27.921572,-27.29412,-26.039219,-25.411768,-24.784317,-24.156866,-22.901964,-22.274513,-21.647062,-21.647062,-21.647062,-21.019611,-21.019611,-21.019611,-21.019611,-20.39216,-20.39216,-20.39216,-20.39216,-21.019611,-20.39216,-21.019611,-22.274513,-22.901964,-23.529415,-23.529415,-23.529415,-22.901964,-21.647062,-19.76471,-18.509808,-16.627455,-15.372553,-14.745102,-13.4902,-12.862749,-12.235298,-11.607847,-10.352945,-9.098043,-7.2156906,-5.333338,-3.450985,-2.196083,-0.31373024,0.3137207,1.5686226,2.8235245,4.7058773,5.960779,7.843132,9.725485,11.607838,12.86274,14.117641,15.372543,16.627445,17.254896,17.254896,18.509798,18.509798,19.137249,18.509798,17.882347,17.882347,16.627445,15.372543,14.117641,12.86274,11.607838,10.980387,10.352936,10.352936,10.352936,11.607838,11.607838,12.86274,12.86274,14.117641,14.117641,14.117641,14.745092,14.745092,14.745092,14.745092,14.745092,14.745092,14.117641,12.86274,12.235289,10.980387,9.098034,7.843132,5.960779,4.7058773,3.4509754,2.8235245,1.5686226,1.5686226,0.94117165,0.94117165,0.94117165,0.3137207,0.31373024,0.94117165,0.94117165,1.5686226,2.1960735,2.8235245,3.4509754,4.0784264,4.7058773,5.960779,6.58823,7.215681,8.470583,9.098034,10.352936,11.607838,12.235289,14.117641,14.745092,15.372543,15.999994,15.372543,15.372543,15.372543,14.745092,14.117641,12.235289,9.725485,6.58823,2.8235245,0.3137207,-1.5686321,-2.196083,-2.823534,-4.705887,-5.333338,-6.5882397,-5.333338,-4.078436,-1.5686321,-0.31373024,0.3137207,0.3137207,0.3137207,0.3137207,0.3137207,0.3137207,0.3137207
0.3137207,0.3137207,0.3137207,0.3137207,0.3137207,0.3137207,-0.31373024,-2.196083,-1.5686321,-0.31373024,-0.31373024,0.3137207,0.3137207,0.94117165,0.3137207,-0.9411812,-2.196083,-2.823534,-3.450985,-4.078436,-5.333338,-5.9607887,-7.8431416,-9.098043,-10.352945,-12.235298,-14.117651,-16.627455,-18.509808,-20.39216,-21.647062,-22.901964,-22.901964,-23.529415,-22.274513,-21.019611,-19.76471,-18.509808,-16.000004,-14.117651,-11.607847,-7.8431416,-5.9607887,-4.705887,-2.823534,-1.5686321,-1.5686321,-0.9411812,-0.31373024,-0.31373024,0.3137207,0.94117165,1.5686226,2.1960735,2.1960735,2.1960735,1.5686226,1.5686226,0.94117165,0.94117165,0.3137207,-0.31373024,-0.9411812,-1.5686321,-2.196083,-3.450985,-4.705887,-5.333338,-7.2156906,-8.4705925,-10.352945,-11.607847,-13.4902,-15.372553,-16.627455,-17.254906,-17.882357,-18.509808,-19.137259,-19.76471,-21.019611,-22.274513,-23.529415,-24.156866,-25.411768,-26.039219,-27.29412,-27.29412,-27.29412,-27.29412,-27.29412,-27.29412,-27.29412,-27.921572,-28.549023,-29.803925,-30.431376,-31.686277,-32.31373,-32.31373,-32.31373,-32.941177,-32.31373,-31.686277,-30.431376,-29.803925,-28.549023,-27.921572,-26.66667,-26.039219,-24.784317,-24.156866,-23.529415,-23.529415,-22.901964,-22.274513,-22.274513,-22.274513,-21.647062,-21.647062,-21.019611,-21.647062,-21.647062,-21.647062,-21.019611,-21.647062,-22.274513,-23.529415,-24.156866,-24.784317,-24.784317,-24.784317,-23.529415,-22.274513,-21.019611,-19.137259,-17.882357,-16.627455,-16.000004,-15.372553,-14.745102,-14.117651,-13.4902,-12.235298,-10.980396,-9.098043,-7.2156906,-5.9607887,-4.078436,-2.823534,-0.9411812,0.3137207,1.5686226,2.8235245,4.7058773,6.58823,8.470583,10.352936,11.607838,12.86274,14.117641,15.372543,15.372543,16.627445,16.627445,17.882347,17.882347,17.882347,17.882347,16.627445,15.999994,14.745092,14.117641,12.86274,11.607838,10.980387,10.352936,10.352936,10.980387,10.980387,11.607838,11.607838,11.607838,12.235289,12.86274,12.235289,12.235289,12.235289,12.235289,12.235289,12.235289,11.607838,11.607838,10.352936,10.352936,8.470583,7.843132,5.960779,4.7058773,3.4509754,2.8235245,2.1960735,1.5686226,0.94117165,0.94117165,0.94117165,0.94117165,0.94117165,0.94117165,0.94117165,1.5686226,2.1960735,2.8235245,2.8235245,4.0784264,4.0784264,5.3333282,5.960779,7.215681,8.470583,9.098034,10.352936,11.607838,12.235289,13.4901905,14.117641,14.745092,15.372543,15.372543,15.372543,15.372543,14.745092,14.745092,14.117641,12.86274,9.098034,5.3333282,3.4509754,0.94117165,-0.9411812,-2.196083,-2.823534,-4.078436,-5.333338,-6.5882397,-5.333338,-4.705887,-2.823534,-0.31373024,0.3137207,0.3137207,0.3137207,0.3137207,0.3137207,0.3137207,0.3137207
0.3137207,0.3137207,0.3137207,0.3137207,0.3137207,0.3137207,-0.9411812,-2.196083,-1.5686321,-0.9411812,-0.31373024,-0.31373024,0.3137207,-0.31373024,-0.31373024,-0.9411812,-1.5686321,-2.823534,-4.078436,-4.705887,-5.333338,-6.5882397,-7.2156906,-9.098043,-10.352945,-11.607847,-13.4902,-16.000004,-17.254906,-18.509808,-19.76471,-21.019611,-21.647062,-21.019611,-20.39216,-19.76471,-17.882357,-16.000004,-14.117651,-12.862749,-10.980396,-8.4705925,-5.9607887,-4.078436,-2.823534,-2.196083,-0.9411812,-0.31373024,-0.31373024,0.3137207,0.94117165,1.5686226,2.1960735,2.1960735,2.1960735,2.1960735,1.5686226,1.5686226,0.94117165,0.3137207,-0.31373024,-0.9411812,-1.5686321,-2.196083,-2.823534,-3.450985,-5.333338,-5.9607887,-7.8431416,-9.725494,-11.607847,-13.4902,-15.372553,-16.627455,-18.509808,-19.137259,-19.76471,-20.39216,-21.019611,-21.647062,-22.901964,-24.156866,-24.784317,-26.039219,-26.66667,-27.921572,-27.921572,-28.549023,-27.921572,-27.921572,-27.921572,-27.29412,-27.921572,-28.549023,-28.549023,-30.431376,-31.058826,-32.31373,-32.941177,-33.56863,-34.196083,-33.56863,-33.56863,-32.941177,-32.31373,-31.058826,-29.803925,-28.549023,-27.921572,-26.66667,-26.039219,-24.784317,-24.156866,-24.156866,-23.529415,-23.529415,-23.529415,-22.901964,-22.901964,-22.274513,-22.274513,-21.647062,-21.647062,-21.647062,-21.647062,-22.274513,-23.529415,-24.156866,-24.784317,-25.411768,-25.411768,-24.784317,-24.156866,-22.901964,-21.647062,-20.39216,-19.137259,-18.509808,-17.882357,-17.254906,-16.000004,-16.000004,-15.372553,-14.117651,-12.235298,-10.980396,-9.098043,-7.2156906,-5.333338,-4.078436,-2.823534,-1.5686321,-0.31373024,1.5686226,2.8235245,4.7058773,6.58823,8.470583,10.352936,11.607838,12.235289,13.4901905,14.117641,15.372543,15.372543,16.627445,17.254896,17.254896,16.627445,15.999994,15.372543,14.745092,12.86274,12.235289,11.607838,10.980387,10.980387,10.980387,10.980387,10.980387,10.980387,10.352936,10.980387,10.352936,10.352936,10.352936,10.352936,10.352936,9.725485,9.725485,9.725485,9.725485,9.098034,7.843132,7.843132,6.58823,5.3333282,4.0784264,2.8235245,2.1960735,1.5686226,1.5686226,0.94117165,0.94117165,0.94117165,0.94117165,1.5686226,1.5686226,1.5686226,1.5686226,2.1960735,2.8235245,2.8235245,3.4509754,4.0784264,4.7058773,5.3333282,7.215681,7.843132,9.098034,10.352936,10.980387,12.235289,12.86274,12.86274,14.117641,14.117641,14.745092,14.745092,14.745092,14.745092,14.745092,14.117641,14.117641,12.86274,8.470583,5.3333282,2.1960735,0.94117165,-1.5686321,-2.196083,-2.823534,-3.450985,-5.333338,-5.9607887,-5.9607887,-4.705887,-2.823534,-0.31373024,0.3137207,0.3137207,0.3137207,0.3137207,0.3137207,0.3137207,0.3137207
0.3137207,0.3137207,0.3137207,0.3137207,0.3137207,0.3137207,-0.9411812,-2.196083,-2.196083,-1.5686321,-0.9411812,-0.31373024,-0.31373024,0.3137207,-0.31373024,-1.5686321,-2.196083,-3.450985,-4.078436,-4.705887,-5.333338,-6.5882397,-7.2156906,-8.4705925,-9.725494,-10.980396,-12.862749,-14.117651,-15.372553,-17.254906,-17.254906,-17.882357,-19.137259,-19.137259,-18.509808,-17.254906,-16.000004,-14.745102,-13.4902,-11.607847,-9.098043,-7.8431416,-5.333338,-3.450985,-2.823534,-1.5686321,-0.9411812,-0.31373024,0.3137207,0.94117165,1.5686226,2.1960735,2.8235245,2.8235245,2.8235245,2.1960735,2.1960735,1.5686226,0.3137207,-0.31373024,-0.31373024,-0.9411812,-1.5686321,-2.196083,-2.823534,-4.705887,-5.333338,-7.2156906,-8.4705925,-10.352945,-12.235298,-14.745102,-16.627455,-18.509808,-19.76471,-21.019611,-21.647062,-22.274513,-22.901964,-23.529415,-24.156866,-25.411768,-26.66667,-27.29412,-27.921572,-28.549023,-28.549023,-29.176474,-28.549023,-27.921572,-27.29412,-27.29412,-27.29412,-27.921572,-28.549023,-29.803925,-31.058826,-32.31373,-32.941177,-33.56863,-34.196083,-34.196083,-34.196083,-33.56863,-32.941177,-31.686277,-31.058826,-29.803925,-27.921572,-26.66667,-26.66667,-24.784317,-24.784317,-24.156866,-24.156866,-23.529415,-23.529415,-23.529415,-22.901964,-22.901964,-22.274513,-21.647062,-21.647062,-21.647062,-22.274513,-22.901964,-22.901964,-24.156866,-25.411768,-25.411768,-25.411768,-25.411768,-24.156866,-23.529415,-22.274513,-20.39216,-19.76471,-19.137259,-18.509808,-17.882357,-17.882357,-17.254906,-16.627455,-15.372553,-13.4902,-12.235298,-10.352945,-8.4705925,-7.2156906,-5.333338,-4.078436,-2.823534,-1.5686321,0.3137207,1.5686226,3.4509754,5.3333282,6.58823,8.470583,9.725485,10.980387,12.235289,12.86274,13.4901905,14.117641,15.372543,15.372543,15.372543,15.372543,15.372543,14.745092,13.4901905,12.86274,12.235289,11.607838,11.607838,11.607838,11.607838,10.980387,10.980387,10.352936,9.725485,9.098034,8.470583,8.470583,8.470583,7.843132,7.843132,7.843132,7.215681,7.215681,6.58823,5.960779,5.960779,4.7058773,4.0784264,2.8235245,2.1960735,0.94117165,0.3137207,0.94117165,0.3137207,0.3137207,0.94117165,0.94117165,1.5686226,1.5686226,2.1960735,2.1960735,2.823515,2.8235245,3.450966,3.4509754,4.0784264,4.7058773,4.7058773,5.960779,6.58823,7.843132,9.098034,10.980387,11.607838,12.235289,12.86274,13.4901905,13.4901905,14.117641,14.117641,14.745092,14.117641,14.117641,14.117641,14.117641,14.117641,12.86274,8.470583,4.7058773,2.1960735,0.3137207,-1.5686321,-2.823534,-3.450985,-4.078436,-4.705887,-5.9607887,-5.9607887,-4.705887,-3.450985,-1.5686321,0.3137207,0.3137207,0.3137207,0.3137207,0.3137207,0.3137207,0.3137207
0.3137207,0.3137207,0.3137207,0.3137207,0.3137207,0.3137207,-0.9411812,-2.196083,-2.196083,-1.5686321,-1.5686321,-0.9411812,-0.31373024,-0.31373024,-0.9411812,-1.5686321,-2.823534,-3.450985,-4.078436,-5.333338,-5.333338,-6.5882397,-7.2156906,-8.4705925,-9.725494,-10.980396,-11.607847,-12.862749,-12.862749,-14.745102,-15.372553,-15.372553,-16.627455,-16.627455,-16.627455,-16.000004,-14.745102,-12.862749,-11.607847,-10.352945,-8.4705925,-6.5882397,-4.705887,-2.823534,-1.5686321,-0.9411812,0.3137207,0.94117165,1.5686226,1.5686226,2.1960735,2.8235245,3.4509754,3.4509754,3.4509754,2.8235245,1.5686226,1.5686226,0.3137207,-0.31373024,-0.9411812,-1.5686321,-2.196083,-2.823534,-3.450985,-4.078436,-5.9607887,-7.2156906,-8.4705925,-10.352945,-12.862749,-15.372553,-17.254906,-19.76471,-21.019611,-22.274513,-22.901964,-24.156866,-24.784317,-24.784317,-26.039219,-26.66667,-27.29412,-28.549023,-29.176474,-29.803925,-29.803925,-29.176474,-28.549023,-28.549023,-27.921572,-26.66667,-27.29412,-27.29412,-27.921572,-28.549023,-29.803925,-31.686277,-32.31373,-33.56863,-33.56863,-34.196083,-33.56863,-33.56863,-32.941177,-31.686277,-30.431376,-29.803925,-28.549023,-26.66667,-26.039219,-24.784317,-24.784317,-24.156866,-24.156866,-24.156866,-23.529415,-23.529415,-22.901964,-22.274513,-21.647062,-21.647062,-21.647062,-21.647062,-21.647062,-22.274513,-22.901964,-24.156866,-24.784317,-25.411768,-25.411768,-24.784317,-23.529415,-22.901964,-21.647062,-21.019611,-19.76471,-19.76471,-19.137259,-19.137259,-18.509808,-17.882357,-17.254906,-16.000004,-14.745102,-12.862749,-10.980396,-9.725494,-7.8431416,-6.5882397,-5.333338,-4.078436,-2.823534,-1.5686321,0.3137207,1.5686226,3.4509754,5.3333282,6.58823,7.843132,9.098034,10.352936,10.980387,12.235289,12.86274,14.117641,14.745092,15.372543,15.372543,14.745092,14.117641,13.4901905,12.86274,12.235289,12.235289,11.607838,11.607838,11.607838,11.607838,10.980387,9.725485,9.098034,7.843132,7.215681,6.58823,5.960779,5.960779,5.3333282,5.3333282,5.3333282,4.7058773,4.0784264,4.0784264,3.4509754,2.1960735,0.94117165,0.94117165,0.3137207,-0.9411812,-0.9411812,-0.9411812,-0.31373024,-0.31373024,0.3137207,0.94117165,1.5686226,2.1960735,2.8235245,2.8235245,3.4509754,3.4509754,3.450985,4.0784264,4.0784264,4.7058773,5.3333282,5.960779,7.2156715,7.843132,9.098034,10.352936,11.607838,12.235289,12.235289,12.86274,13.4901905,13.4901905,14.117641,14.117641,14.117641,13.4901905,14.117641,14.117641,14.117641,13.4901905,8.470583,4.0784264,0.94117165,-0.31373024,-2.196083,-2.823534,-3.450985,-3.450985,-4.705887,-5.9607887,-5.9607887,-4.705887,-2.823534,-1.5686321,0.3137207,0.3137207,0.3137207,0.3137207,0.3137207,0.3137207,0.3137207
0.3137207,0.3137207,0.3137207,0.3137207,0.3137207,0.3137207,-0.9411812,-2.823534,-2.823534,-2.196083,-1.5686321,-0.9411812,-0.9411812,-0.31373024,-1.5686321,-2.196083,-2.823534,-4.078436,-4.705887,-5.333338,-5.9607887,-6.5882397,-7.2156906,-8.4705925,-9.098043,-9.725494,-10.980396,-11.607847,-11.607847,-11.607847,-12.862749,-13.4902,-14.117651,-14.745102,-14.745102,-14.117651,-12.862749,-11.607847,-10.352945,-9.098043,-7.2156906,-5.333338,-4.078436,-2.196083,-0.9411812,0.3137207,0.94117165,2.1960735,2.1960735,2.8235245,2.8235245,3.4509754,3.4509754,4.0784264,3.4509754,2.8235245,1.5686226,1.5686226,0.3137207,-0.31373024,-0.9411812,-1.5686321,-2.196083,-2.823534,-3.450985,-4.705887,-5.9607887,-6.5882397,-8.4705925,-10.980396,-13.4902,-16.000004,-18.509808,-20.39216,-22.274513,-23.529415,-24.156866,-24.784317,-26.039219,-26.039219,-26.66667,-27.29412,-28.549023,-29.176474,-29.803925,-30.431376,-30.431376,-29.803925,-28.549023,-27.921572,-26.66667,-26.66667,-26.039219,-26.039219,-26.66667,-27.921572,-29.176474,-30.431376,-31.686277,-32.31373,-32.941177,-32.31373,-32.31373,-32.941177,-31.686277,-31.058826,-30.431376,-29.176474,-27.921572,-27.29412,-25.411768,-24.784317,-24.784317,-24.156866,-24.156866,-23.529415,-23.529415,-22.901964,-22.274513,-21.647062,-21.019611,-21.019611,-19.76471,-19.76471,-21.019611,-21.647062,-22.274513,-22.901964,-24.156866,-24.156866,-24.156866,-23.529415,-22.901964,-21.647062,-21.019611,-20.39216,-19.76471,-19.76471,-19.137259,-19.137259,-19.137259,-17.882357,-17.882357,-16.000004,-15.372553,-12.862749,-11.607847,-9.725494,-8.4705925,-7.2156906,-5.9607887,-4.705887,-3.450985,-2.823534,-1.5686321,0.3137207,1.5686226,3.4509754,4.0784264,5.3333282,6.58823,8.470583,9.725485,10.980387,12.235289,12.86274,13.4901905,14.117641,14.117641,14.117641,14.117641,13.4901905,12.86274,12.86274,12.235289,12.235289,12.235289,11.607838,11.607838,10.352936,9.098034,7.843132,6.58823,5.3333282,4.7058773,4.0784264,4.0784264,3.4509754,3.4509754,2.8235245,2.8235245,2.1960735,1.5686226,0.94117165,-0.31373024,-0.9411812,-1.5686321,-2.196083,-1.5686321,-2.196083,-1.5686321,-0.9411812,-0.31373024,0.3137207,1.5686226,1.5686226,2.8235245,3.4509754,4.0784264,4.0784264,4.7058773,4.0784264,4.7058773,4.7058773,4.7058773,5.3333282,6.5882206,7.215681,7.843132,9.098034,10.352936,11.607838,12.235289,12.235289,12.86274,12.86274,12.86274,12.86274,12.86274,12.86274,13.4901905,13.4901905,13.4901905,13.4901905,13.4901905,9.098034,4.0784264,0.94117165,-0.9411812,-2.196083,-4.078436,-4.078436,-4.705887,-4.078436,-5.333338,-5.333338,-4.705887,-2.823534,-1.5686321,0.3137207,0.3137207,0.3137207,0.3137207,0.3137207,0.3137207,0.3137207
0.3137207,0.3137207,0.3137207,0.3137207,0.3137207,0.3137207,-0.9411812,-2.823534,-2.823534,-2.196083,-2.196083,-1.5686321,-0.9411812,-0.9411812,-1.5686321,-2.196083,-3.450985,-4.078436,-4.705887,-5.333338,-5.9607887,-5.9607887,-6.5882397,-7.8431416,-8.4705925,-9.098043,-9.725494,-10.352945,-9.725494,-9.725494,-10.352945,-10.980396,-11.607847,-12.862749,-12.862749,-12.862749,-12.235298,-10.352945,-9.725494,-7.8431416,-6.5882397,-5.333338,-3.450985,-1.5686321,0.3137207,1.5686226,2.1960735,2.8235245,3.4509754,4.0784264,4.0784264,4.0784264,4.7058773,4.0784264,3.4509754,3.4509754,2.1960735,1.5686226,-0.31373024,-0.31373024,-0.9411812,-2.196083,-2.196083,-2.823534,-3.450985,-4.705887,-5.9607887,-6.5882397,-8.4705925,-10.980396,-13.4902,-16.627455,-18.509808,-21.019611,-22.901964,-24.784317,-25.411768,-26.039219,-26.66667,-27.29412,-27.921572,-28.549023,-29.176474,-29.803925,-30.431376,-30.431376,-30.431376,-29.803925,-29.176474,-27.921572,-26.66667,-25.411768,-24.784317,-24.784317,-25.411768,-26.66667,-27.29412,-28.549023,-29.803925,-31.058826,-31.686277,-31.058826,-31.058826,-31.058826,-31.058826,-30.431376,-29.803925,-28.549023,-27.29412,-26.66667,-25.411768,-24.784317,-24.156866,-24.156866,-23.529415,-23.529415,-22.901964,-22.274513,-21.647062,-21.019611,-20.39216,-19.76471,-18.509808,-18.509808,-19.137259,-19.76471,-21.019611,-21.647062,-22.274513,-22.901964,-22.274513,-22.274513,-21.647062,-21.019611,-20.39216,-19.137259,-19.137259,-18.509808,-19.137259,-19.137259,-18.509808,-17.882357,-17.254906,-16.000004,-14.745102,-13.4902,-12.235298,-9.725494,-8.4705925,-7.8431416,-6.5882397,-5.9607887,-4.705887,-3.450985,-2.823534,-1.5686321,-0.31373024,0.94117165,2.1960735,4.0784264,4.7058773,6.58823,7.843132,9.098034,10.352936,11.607838,12.86274,13.4901905,13.4901905,14.117641,13.4901905,12.86274,12.86274,12.86274,12.86274,12.235289,12.235289,11.607838,11.607838,10.352936,8.470583,7.215681,5.3333282,4.7058773,3.4509754,2.8235245,2.8235245,2.1960735,1.5686226,1.5686226,0.94117165,0.3137207,-0.31373024,-0.9411812,-1.5686321,-2.196083,-2.823534,-2.823534,-2.823534,-2.196083,-2.196083,-1.5686321,-0.31373024,-0.31373024,1.5686226,2.1960735,3.4509754,4.0784264,4.7058773,5.3333282,4.7058773,4.7058773,5.3333282,5.3333187,5.3333282,5.3333282,5.960779,7.215681,9.098034,9.725485,10.352936,11.607838,12.235289,12.235289,12.235289,12.86274,12.86274,12.86274,12.86274,12.86274,12.86274,13.4901905,13.4901905,12.86274,12.235289,10.352936,4.0784264,-0.31373024,-2.196083,-2.823534,-4.078436,-4.078436,-4.705887,-4.078436,-5.333338,-5.333338,-4.078436,-2.823534,-0.9411812,0.3137207,0.3137207,0.3137207,0.3137207,0.3137207,0.3137207,0.3137207
0.3137207,0.3137207,0.3137207,0.3137207,0.3137207,0.3137207,-0.9411812,-2.823534,-2.823534,-2.823534,-2.823534,-2.196083,-1.5686321,-0.9411812,-2.196083,-2.823534,-3.450985,-4.078436,-4.705887,-4.705887,-5.333338,-5.9607887,-6.5882397,-7.2156906,-7.8431416,-8.4705925,-9.098043,-9.098043,-8.4705925,-7.2156906,-8.4705925,-8.4705925,-9.725494,-10.980396,-11.607847,-11.607847,-10.980396,-9.725494,-9.098043,-7.8431416,-5.9607887,-4.705887,-2.823534,-0.9411812,1.5686226,2.8235245,3.4509754,4.0784264,4.0784264,4.7058773,4.7058773,4.7058773,4.7058773,4.7058773,4.0784264,2.8235245,2.1960735,1.5686226,-0.31373024,-0.31373024,-1.5686321,-2.196083,-2.196083,-3.450985,-3.450985,-4.705887,-5.333338,-7.2156906,-9.098043,-11.607847,-14.117651,-17.254906,-19.137259,-21.647062,-24.156866,-25.411768,-26.66667,-27.29412,-27.921572,-28.549023,-29.176474,-29.176474,-29.803925,-30.431376,-31.058826,-30.431376,-30.431376,-29.176474,-28.549023,-27.29412,-26.039219,-24.784317,-23.529415,-23.529415,-24.156866,-24.784317,-26.039219,-27.29412,-28.549023,-29.176474,-29.803925,-29.803925,-29.803925,-29.803925,-29.803925,-29.176474,-28.549023,-27.921572,-26.66667,-26.039219,-24.784317,-24.156866,-23.529415,-23.529415,-22.901964,-22.901964,-22.274513,-21.647062,-20.39216,-19.76471,-18.509808,-17.882357,-17.882357,-17.254906,-17.882357,-18.509808,-19.137259,-20.39216,-21.019611,-21.019611,-21.019611,-20.39216,-19.76471,-19.137259,-18.509808,-18.509808,-17.882357,-17.254906,-17.254906,-17.254906,-17.882357,-17.254906,-16.000004,-15.372553,-14.117651,-12.862749,-10.980396,-10.352945,-9.098043,-8.4705925,-7.2156906,-6.5882397,-5.9607887,-5.333338,-4.078436,-3.450985,-2.196083,-0.9411812,0.3137207,1.5686226,2.8235245,4.7058773,6.58823,7.843132,9.098034,10.980387,11.607838,12.86274,12.86274,13.4901905,13.4901905,12.86274,12.86274,12.86274,12.86274,12.86274,12.235289,12.235289,10.980387,9.725485,7.843132,6.58823,4.7058773,3.4509754,2.1960735,1.5686226,1.5686226,0.94117165,0.3137207,0.3137207,-0.9411812,-0.9411812,-1.5686321,-2.196083,-2.823534,-3.450985,-3.450985,-3.450985,-3.450985,-2.823534,-2.196083,-0.9411812,-0.31373024,0.94117165,1.5686226,2.8235245,4.0784264,4.7058773,5.3333282,5.960779,6.58823,6.58823,5.960779,5.3333282,5.960779,5.960779,6.58823,7.843132,9.098034,9.725485,10.980387,11.607838,12.235289,12.235289,12.235289,12.235289,12.235289,12.235289,12.235289,12.235289,12.86274,12.86274,12.86274,12.86274,12.235289,9.725485,4.7058773,-0.31373024,-2.196083,-3.450985,-4.705887,-5.333338,-5.333338,-4.705887,-4.705887,-4.705887,-4.078436,-2.196083,-0.9411812,0.3137207,0.3137207,0.3137207,0.3137207,0.3137207,0.3137207,0.3137207
0.3137207,0.3137207,0.3137207,0.3137207,0.3137207,0.3137207,-0.31373024,-2.196083,-3.450985,-3.450985,-2.823534,-2.823534,-2.196083,-1.5686321,-2.196083,-3.450985,-4.078436,-4.078436,-4.078436,-4.705887,-5.333338,-5.333338,-5.9607887,-6.5882397,-7.2156906,-7.8431416,-7.8431416,-8.4705925,-6.5882397,-5.333338,-6.5882397,-6.5882397,-7.8431416,-9.098043,-9.725494,-10.352945,-10.352945,-9.098043,-7.8431416,-7.2156906,-5.9607887,-4.078436,-2.196083,-0.31373024,2.1960735,4.0784264,4.7058773,5.3333282,5.960779,5.3333282,5.3333282,5.3333282,4.7058773,4.7058773,4.0784264,2.8235245,2.8235245,1.5686226,-0.31373024,-0.31373024,-1.5686321,-1.5686321,-2.823534,-3.450985,-4.078436,-4.705887,-5.9607887,-7.8431416,-9.725494,-12.235298,-15.372553,-17.882357,-21.019611,-22.901964,-24.784317,-26.66667,-27.29412,-28.549023,-28.549023,-29.176474,-29.803925,-29.803925,-30.431376,-30.431376,-30.431376,-30.431376,-29.176474,-28.549023,-27.29412,-26.039219,-24.784317,-23.529415,-22.274513,-22.274513,-22.274513,-23.529415,-24.784317,-26.039219,-27.29412,-27.921572,-28.549023,-28.549023,-28.549023,-28.549023,-29.176474,-28.549023,-27.921572,-27.29412,-26.039219,-24.784317,-24.784317,-23.529415,-23.529415,-22.901964,-22.901964,-22.274513,-21.019611,-20.39216,-19.137259,-18.509808,-17.254906,-16.627455,-16.000004,-16.000004,-16.000004,-16.627455,-17.882357,-18.509808,-19.137259,-19.76471,-19.137259,-18.509808,-17.882357,-17.254906,-17.254906,-16.627455,-16.627455,-16.000004,-16.000004,-16.000004,-16.000004,-15.372553,-15.372553,-14.117651,-13.4902,-12.235298,-11.607847,-9.725494,-9.098043,-8.4705925,-7.8431416,-7.2156906,-6.5882397,-5.9607887,-5.333338,-4.705887,-4.078436,-2.823534,-1.5686321,-0.31373024,1.5686226,2.8235245,4.7058773,6.58823,7.843132,9.725485,10.980387,11.607838,12.235289,12.86274,12.86274,12.86274,12.86274,12.86274,12.86274,12.86274,12.235289,12.235289,10.352936,9.725485,7.215681,5.960779,4.0784264,2.1960735,1.5686226,0.3137207,-0.31373024,-0.31373024,-0.9411812,-1.5686321,-1.5686321,-2.823534,-2.823534,-2.823534,-3.450985,-4.078436,-4.078436,-3.450985,-2.823534,-2.196083,-1.5686321,-0.9411812,-0.31373024,0.94117165,2.1960735,3.4509754,4.7058773,5.960779,6.58823,7.215681,7.843132,7.215681,6.58823,6.58823,6.58823,7.215681,7.843132,8.470583,9.725485,10.980387,11.607838,12.235289,12.235289,12.235289,12.235289,12.235289,12.235289,12.235289,12.235289,12.235289,12.235289,12.235289,12.235289,12.235289,10.980387,9.725485,5.3333282,0.3137207,-2.196083,-4.078436,-4.705887,-5.9607887,-5.333338,-4.705887,-4.705887,-4.705887,-3.450985,-2.196083,-0.9411812,0.3137207,0.3137207,0.3137207,0.3137207,0.3137207,0.3137207,0.3137207
0.3137207,0.3137207,0.3137207,0.3137207,0.3137207,0.3137207,-0.31373024,-2.196083,-2.823534,-4.078436,-3.450985,-2.823534,-2.196083,-2.196083,-2.823534,-3.450985,-4.078436,-3.450985,-4.078436,-4.078436,-4.705887,-5.333338,-5.333338,-5.9607887,-6.5882397,-7.2156906,-6.5882397,-7.2156906,-5.333338,-4.078436,-4.705887,-4.705887,-5.9607887,-7.8431416,-8.4705925,-8.4705925,-9.098043,-8.4705925,-7.8431416,-6.5882397,-5.333338,-3.450985,-1.5686321,0.3137207,2.8235245,4.7058773,5.960779,5.960779,6.58823,5.960779,5.960779,5.3333282,5.3333282,4.7058773,4.0784264,2.8235245,2.8235245,1.5686226,0.3137207,-0.9411812,-1.5686321,-2.196083,-2.823534,-3.450985,-4.705887,-5.333338,-6.5882397,-8.4705925,-10.980396,-13.4902,-16.000004,-19.137259,-21.647062,-23.529415,-26.039219,-27.29412,-28.549023,-29.176474,-29.176474,-29.803925,-29.803925,-29.803925,-29.803925,-30.431376,-29.803925,-29.176474,-27.921572,-27.29412,-26.039219,-24.784317,-23.529415,-22.274513,-21.019611,-21.019611,-21.019611,-22.274513,-23.529415,-24.784317,-26.039219,-26.66667,-27.29412,-27.921572,-27.921572,-28.549023,-27.921572,-27.29412,-27.29412,-26.039219,-25.411768,-24.784317,-24.156866,-23.529415,-22.901964,-22.901964,-22.274513,-21.019611,-20.39216,-19.137259,-17.882357,-16.627455,-16.000004,-14.745102,-14.745102,-14.117651,-15.372553,-15.372553,-16.000004,-16.627455,-17.254906,-17.254906,-17.882357,-17.254906,-16.000004,-16.000004,-14.745102,-14.745102,-14.117651,-14.117651,-14.117651,-14.117651,-14.117651,-14.117651,-14.117651,-13.4902,-12.235298,-11.607847,-10.980396,-10.352945,-9.098043,-8.4705925,-7.8431416,-7.2156906,-7.2156906,-6.5882397,-6.5882397,-6.5882397,-5.333338,-4.705887,-3.450985,-2.196083,-0.31373024,0.94117165,2.8235245,4.7058773,6.58823,8.470583,9.725485,10.980387,11.607838,12.235289,12.235289,12.86274,12.86274,12.86274,12.86274,12.86274,12.86274,12.235289,10.980387,9.098034,7.215681,5.3333282,2.8235245,1.5686226,0.3137207,-0.9411812,-2.196083,-2.196083,-2.823534,-3.450985,-2.823534,-4.078436,-3.450985,-4.078436,-4.078436,-4.078436,-3.450985,-3.450985,-2.823534,-1.5686321,-0.9411812,-0.31373024,0.94117165,2.1960735,3.4509754,4.7058773,5.960779,7.215681,7.843132,8.470583,9.098034,8.470583,7.843132,7.843132,7.843132,7.843132,9.098034,9.725485,10.352936,10.980387,11.607838,12.235289,12.235289,12.235289,12.235289,12.235289,12.235289,11.607838,11.607838,11.607838,12.235289,11.607838,11.607838,11.607838,10.352936,8.470583,5.3333282,-0.31373024,-2.823534,-4.078436,-5.333338,-5.9607887,-5.9607887,-5.333338,-4.705887,-4.078436,-3.450985,-1.5686321,-0.9411812,0.3137207,0.3137207,0.3137207,0.3137207,0.3137207,0.3137207,0.3137207
0.3137207,0.3137207,0.3137207,0.3137207,0.3137207,0.3137207,-0.31373024,-1.5686321,-2.823534,-4.078436,-3.450985,-3.450985,-2.823534,-2.196083,-3.450985,-4.078436,-3.450985,-3.450985,-4.078436,-4.078436,-4.078436,-4.705887,-5.333338,-5.333338,-5.9607887,-6.5882397,-5.333338,-5.9607887,-4.078436,-2.196083,-3.450985,-2.823534,-4.705887,-5.9607887,-6.5882397,-7.2156906,-7.8431416,-7.8431416,-7.2156906,-5.9607887,-4.705887,-3.450985,-1.5686321,0.94117165,2.8235245,5.3333282,6.58823,6.58823,6.58823,6.58823,5.3333282,5.3333282,4.7058773,4.7058773,4.0784264,2.8235245,2.8235245,0.94117165,-0.31373024,-0.31373024,-1.5686321,-2.823534,-2.823534,-3.450985,-4.705887,-5.333338,-7.2156906,-9.098043,-10.980396,-14.117651,-16.627455,-19.76471,-22.274513,-24.784317,-26.66667,-28.549023,-29.176474,-29.176474,-29.803925,-29.803925,-29.803925,-29.803925,-29.803925,-29.176474,-28.549023,-27.921572,-26.66667,-25.411768,-24.156866,-22.901964,-21.647062,-21.019611,-19.76471,-19.76471,-20.39216,-21.019611,-22.274513,-23.529415,-24.784317,-26.039219,-26.66667,-27.29412,-27.921572,-27.921572,-27.29412,-27.29412,-26.66667,-26.039219,-25.411768,-24.156866,-23.529415,-22.901964,-22.274513,-22.274513,-21.019611,-20.39216,-19.137259,-17.882357,-16.627455,-15.372553,-14.745102,-14.117651,-14.117651,-14.117651,-13.4902,-14.745102,-14.745102,-16.000004,-16.000004,-16.627455,-15.372553,-15.372553,-14.745102,-14.117651,-13.4902,-12.862749,-12.235298,-12.235298,-12.235298,-12.235298,-12.235298,-12.235298,-12.235298,-11.607847,-11.607847,-10.980396,-10.352945,-9.725494,-9.098043,-8.4705925,-8.4705925,-7.8431416,-7.8431416,-7.8431416,-7.2156906,-7.8431416,-7.2156906,-5.9607887,-5.333338,-4.078436,-2.196083,-0.31373024,1.5686226,3.4509754,5.3333282,7.215681,9.098034,9.725485,10.980387,11.607838,12.235289,12.235289,12.86274,12.86274,12.86274,12.86274,12.86274,11.607838,10.352936,8.470583,6.58823,4.0784264,2.1960735,0.3137207,-1.5686321,-2.823534,-3.450985,-4.078436,-4.705887,-4.078436,-4.705887,-4.078436,-4.705887,-4.078436,-4.078436,-3.450985,-2.823534,-2.196083,-1.5686321,-0.9411812,0.3137207,0.94117165,2.1960735,3.4509754,4.7058773,5.960779,7.215681,8.470583,9.098034,10.352936,10.352936,9.725485,9.725485,9.098034,9.098034,9.725485,9.725485,10.352936,10.980387,12.235289,12.235289,12.235289,12.235289,12.235289,12.235289,11.607838,11.607838,11.607838,10.980387,11.607838,11.607838,11.607838,10.980387,10.352936,9.725485,7.843132,5.960779,1.5686226,-2.823534,-4.078436,-5.333338,-6.5882397,-5.9607887,-5.333338,-4.705887,-4.078436,-2.823534,-1.5686321,-0.31373024,0.3137207,0.3137207,0.3137207,0.3137207,0.3137207,0.3137207,0.3137207
0.3137207,0.3137207,0.3137207,0.3137207,0.3137207,0.3137207,0.3137207,-0.9411812,-2.823534,-4.078436,-4.078436,-4.078436,-2.823534,-2.823534,-3.450985,-3.450985,-3.450985,-3.450985,-3.450985,-4.078436,-4.078436,-4.078436,-4.078436,-5.333338,-5.333338,-5.9607887,-4.705887,-4.705887,-2.823534,-0.9411812,-2.196083,-1.5686321,-3.450985,-4.705887,-5.333338,-6.5882397,-7.2156906,-7.2156906,-6.5882397,-5.333338,-4.078436,-2.823534,-0.9411812,0.94117165,2.1960735,5.960779,5.960779,6.58823,6.58823,5.960779,5.960779,5.3333282,4.7058773,4.0784264,3.4509754,2.8235245,1.5686226,0.94117165,0.3137207,-0.9411812,-2.196083,-2.196083,-3.450985,-4.705887,-5.333338,-6.5882397,-7.8431416,-9.725494,-11.607847,-14.745102,-17.254906,-20.39216,-22.901964,-25.411768,-27.29412,-27.921572,-29.176474,-29.176474,-29.803925,-29.176474,-29.176474,-28.549023,-28.549023,-27.921572,-26.66667,-26.039219,-24.784317,-23.529415,-22.274513,-21.019611,-20.39216,-19.137259,-19.137259,-18.509808,-19.137259,-20.39216,-21.647062,-22.901964,-24.156866,-26.039219,-26.66667,-27.29412,-27.29412,-27.29412,-27.29412,-26.66667,-26.039219,-25.411768,-24.156866,-24.156866,-22.901964,-22.274513,-21.647062,-21.019611,-19.76471,-19.137259,-17.882357,-16.627455,-15.372553,-14.745102,-13.4902,-13.4902,-12.862749,-12.862749,-12.862749,-13.4902,-14.117651,-14.117651,-14.745102,-15.372553,-14.745102,-13.4902,-12.862749,-12.235298,-11.607847,-10.980396,-10.352945,-10.352945,-9.725494,-10.352945,-10.352945,-10.980396,-10.352945,-10.980396,-10.980396,-10.352945,-9.725494,-9.098043,-9.098043,-8.4705925,-8.4705925,-8.4705925,-8.4705925,-8.4705925,-9.098043,-8.4705925,-8.4705925,-7.2156906,-6.5882397,-5.333338,-3.450985,-2.196083,-0.31373024,2.1960735,4.7058773,5.960779,7.843132,9.098034,9.725485,10.980387,11.607838,12.235289,12.235289,12.86274,12.86274,12.86274,12.235289,10.980387,10.352936,7.843132,5.960779,3.4509754,0.94117165,-0.9411812,-2.823534,-4.705887,-5.333338,-5.9607887,-5.9607887,-6.5882397,-5.9607887,-5.333338,-5.333338,-4.078436,-4.078436,-2.823534,-2.196083,-1.5686321,-0.31373024,0.94117165,1.5686226,2.8235245,3.4509754,4.7058773,6.58823,7.843132,9.098034,9.725485,10.352936,11.607838,11.607838,11.607838,11.607838,10.980387,10.980387,11.607838,11.607838,11.607838,12.86274,12.86274,12.86274,12.86274,12.235289,12.235289,11.607838,11.607838,10.980387,10.352936,10.980387,10.980387,10.980387,10.352936,10.352936,9.725485,8.470583,6.58823,4.7058773,0.94117165,-2.823534,-4.705887,-5.333338,-5.9607887,-6.5882397,-5.9607887,-4.705887,-4.078436,-2.823534,-1.5686321,-0.31373024,0.3137207,0.3137207,0.3137207,0.3137207,0.3137207,0.3137207,0.3137207
0.3137207,0.3137207,0.3137207,0.3137207,0.3137207,0.3137207,-0.31373024,-1.5686321,-3.450985,-4.078436,-4.078436,-4.078436,-3.450985,-2.823534,-4.078436,-4.078436,-3.450985,-2.823534,-3.450985,-3.450985,-3.450985,-4.078436,-4.078436,-4.078436,-4.705887,-5.333338,-4.078436,-3.450985,-2.196083,0.94117165,-0.9411812,0.3137207,-2.196083,-3.450985,-4.078436,-5.333338,-5.9607887,-6.5882397,-5.9607887,-5.333338,-4.078436,-2.196083,-0.9411812,0.94117165,2.1960735,5.3333282,6.58823,6.58823,6.58823,5.960779,5.3333282,4.7058773,4.0784264,3.4509754,3.4509754,2.1960735,1.5686226,0.94117165,-0.31373024,-0.9411812,-2.196083,-2.823534,-3.450985,-4.705887,-5.9607887,-7.2156906,-7.8431416,-10.352945,-12.235298,-15.372553,-17.882357,-20.39216,-22.901964,-25.411768,-27.29412,-28.549023,-28.549023,-28.549023,-29.176474,-28.549023,-28.549023,-27.921572,-27.29412,-26.66667,-25.411768,-24.156866,-22.901964,-21.647062,-20.39216,-19.137259,-18.509808,-17.882357,-17.254906,-17.254906,-18.509808,-19.137259,-21.019611,-22.901964,-24.156866,-25.411768,-26.66667,-26.66667,-27.29412,-27.29412,-26.66667,-26.66667,-26.039219,-24.784317,-24.156866,-22.901964,-22.274513,-21.647062,-20.39216,-19.76471,-18.509808,-17.882357,-16.627455,-15.372553,-14.745102,-13.4902,-12.862749,-12.235298,-11.607847,-12.235298,-12.235298,-12.862749,-13.4902,-14.117651,-13.4902,-14.117651,-13.4902,-12.235298,-11.607847,-10.352945,-9.725494,-9.098043,-8.4705925,-8.4705925,-7.8431416,-8.4705925,-9.098043,-9.098043,-9.725494,-9.725494,-9.725494,-9.098043,-9.098043,-9.098043,-8.4705925,-8.4705925,-8.4705925,-8.4705925,-8.4705925,-9.098043,-9.725494,-9.098043,-9.098043,-8.4705925,-7.8431416,-6.5882397,-4.705887,-2.823534,-1.5686321,0.94117165,3.4509754,5.3333282,6.58823,7.843132,9.098034,9.725485,10.352936,10.980387,11.607838,12.235289,12.235289,12.235289,12.235289,10.980387,9.725485,7.215681,5.3333282,2.8235245,0.3137207,-2.823534,-4.078436,-5.9607887,-7.2156906,-7.2156906,-7.8431416,-7.2156906,-6.5882397,-5.9607887,-5.333338,-4.705887,-3.450985,-2.196083,-0.9411812,0.3137207,0.94117165,2.1960735,3.4509754,4.0784264,5.3333282,6.58823,7.843132,9.098034,10.352936,10.980387,12.235289,12.86274,12.86274,12.86274,12.86274,12.235289,12.86274,12.235289,12.235289,12.86274,12.86274,12.86274,12.86274,12.235289,11.607838,10.980387,10.980387,10.352936,9.725485,10.352936,9.098034,9.098034,9.098034,9.098034,9.098034,8.470583,7.215681,5.960779,2.8235245,0.3137207,-2.196083,-4.078436,-5.333338,-7.2156906,-7.2156906,-6.5882397,-5.333338,-4.078436,-2.823534,-2.196083,-0.31373024,0.3137207,0.3137207,0.3137207,0.3137207,-0.31373024,0.3137207,0.3137207
0.3137207,0.3137207,0.3137207,0.3137207,0.3137207,0.3137207,-0.31373024,-1.5686321,-2.823534,-4.078436,-4.705887,-4.705887,-3.450985,-3.450985,-4.078436,-3.450985,-2.823534,-2.823534,-3.450985,-3.450985,-2.823534,-2.823534,-3.450985,-4.078436,-4.078436,-4.705887,-3.450985,-2.823534,-0.9411812,2.1960735,0.3137207,1.5686226,-0.9411812,-2.196083,-3.450985,-4.078436,-5.333338,-5.9607887,-5.333338,-4.078436,-3.450985,-2.823534,-1.5686321,0.3137207,2.1960735,4.7058773,5.960779,5.960779,5.960779,5.3333282,4.7058773,4.0784264,3.4509754,2.8235245,2.1960735,1.5686226,0.94117165,0.3137207,-0.9411812,-1.5686321,-2.823534,-3.450985,-4.078436,-4.705887,-5.9607887,-6.5882397,-8.4705925,-10.352945,-12.862749,-14.745102,-17.254906,-19.76471,-22.901964,-24.784317,-26.039219,-27.29412,-27.921572,-28.549023,-28.549023,-27.921572,-27.921572,-26.66667,-26.039219,-25.411768,-24.156866,-22.901964,-21.647062,-20.39216,-19.137259,-17.882357,-17.254906,-16.627455,-16.627455,-16.627455,-17.882357,-19.137259,-20.39216,-22.274513,-23.529415,-24.784317,-26.039219,-26.66667,-27.29412,-27.29412,-26.66667,-26.039219,-26.039219,-24.784317,-24.156866,-22.274513,-21.019611,-20.39216,-19.137259,-17.882357,-17.254906,-16.000004,-15.372553,-14.117651,-13.4902,-12.862749,-11.607847,-11.607847,-11.607847,-11.607847,-12.235298,-12.235298,-12.235298,-12.862749,-13.4902,-12.235298,-12.235298,-10.980396,-10.352945,-9.098043,-7.8431416,-7.2156906,-6.5882397,-6.5882397,-6.5882397,-7.2156906,-6.5882397,-7.8431416,-8.4705925,-7.8431416,-8.4705925,-8.4705925,-8.4705925,-7.8431416,-7.8431416,-7.8431416,-8.4705925,-8.4705925,-9.098043,-9.725494,-9.725494,-10.352945,-10.352945,-9.725494,-8.4705925,-7.2156906,-5.9607887,-4.078436,-2.196083,0.3137207,2.1960735,4.0784264,5.3333282,6.58823,7.843132,8.470583,9.098034,10.352936,10.980387,11.607838,11.607838,12.235289,11.607838,10.352936,8.470583,6.58823,4.0784264,1.5686226,-1.5686321,-4.078436,-5.333338,-7.2156906,-7.8431416,-8.4705925,-8.4705925,-7.8431416,-6.5882397,-6.5882397,-5.333338,-4.078436,-2.196083,-0.9411812,0.3137207,1.5686226,2.8235245,3.4509754,5.3333282,5.960779,7.215681,8.470583,9.098034,10.352936,11.607838,12.235289,12.86274,13.4901905,12.86274,12.86274,12.86274,13.4901905,12.86274,13.4901905,13.4901905,13.4901905,13.4901905,12.86274,12.235289,11.607838,10.980387,10.352936,9.725485,8.470583,8.470583,8.470583,8.470583,7.843132,7.843132,7.843132,7.843132,7.215681,5.960779,3.4509754,0.94117165,-0.31373024,-2.196083,-4.705887,-5.9607887,-6.5882397,-7.2156906,-6.5882397,-5.9607887,-4.078436,-2.823534,-1.5686321,-0.31373024,0.3137207,0.3137207,0.3137207,0.3137207,-0.31373024,0.3137207,0.3137207
0.3137207,0.3137207,0.3137207,0.3137207,0.3137207,0.3137207,-0.9411812,-2.196083,-3.450985,-4.705887,-5.333338,-4.705887,-4.078436,-3.450985,-4.078436,-3.450985,-2.823534,-2.823534,-2.823534,-2.823534,-2.196083,-2.823534,-2.823534,-2.823534,-3.450985,-4.078436,-2.823534,-1.5686321,-0.31373024,3.4509754,1.5686226,2.1960735,0.3137207,-0.9411812,-2.196083,-3.450985,-4.705887,-4.705887,-4.705887,-4.705887,-3.450985,-2.823534,-1.5686321,0.3137207,1.5686226,4.0784264,5.3333282,5.3333282,5.3333282,4.7058773,4.0784264,3.4509754,2.8235245,2.1960735,1.5686226,0.94117165,0.3137207,-0.9411812,-1.5686321,-2.196083,-3.450985,-4.078436,-4.705887,-5.333338,-5.9607887,-7.2156906,-9.098043,-10.352945,-12.235298,-14.745102,-17.254906,-19.76471,-21.019611,-23.529415,-24.784317,-26.039219,-26.66667,-27.29412,-27.29412,-27.29412,-26.66667,-26.039219,-25.411768,-24.784317,-23.529415,-22.274513,-21.019611,-19.137259,-17.882357,-17.254906,-16.000004,-16.000004,-16.000004,-16.000004,-17.254906,-18.509808,-20.39216,-22.274513,-23.529415,-24.784317,-26.039219,-26.66667,-27.29412,-27.29412,-27.29167,-26.039219,-26.039219,-24.784317,-23.529415,-21.647062,-20.39216,-19.137259,-17.254906,-16.627455,-15.372553,-14.745102,-13.4902,-12.862749,-12.235298,-11.607847,-11.607847,-10.980396,-10.980396,-10.980396,-10.980396,-11.607847,-12.235298,-11.607847,-12.235298,-11.607847,-10.980396,-9.725494,-9.098043,-7.8431416,-6.5882397,-5.9607887,-5.333338,-4.705887,-5.333338,-5.333338,-5.333338,-5.9607887,-7.2156906,-7.2156906,-7.2156906,-7.2156906,-7.2156906,-7.2156906,-7.2156906,-7.2156906,-7.8431416,-8.4705925,-8.4705925,-9.725494,-10.352945,-10.980396,-10.352945,-10.352945,-9.098043,-8.4705925,-6.5882397,-4.705887,-2.823534,-0.9411812,1.5686226,2.8235245,4.0784264,5.3333282,6.58823,7.215681,7.843132,8.470583,9.098034,10.352936,10.352936,10.980387,10.352936,9.725485,7.843132,5.3333282,2.8235245,0.94117165,-2.196083,-4.078436,-6.5882397,-7.8431416,-8.4705925,-8.4705925,-8.4705925,-7.8431416,-7.2156906,-5.333338,-4.705887,-2.823534,-1.5686321,0.3137207,1.5686226,3.4509754,4.0784264,5.3333282,6.58823,7.843132,9.098034,9.725485,10.980387,12.235289,12.86274,12.86274,13.4901905,13.4901905,13.4901905,13.4901905,13.4901905,13.4901905,13.4901905,13.4901905,13.4901905,13.4901905,13.4901905,12.86274,11.607838,10.352936,9.098034,8.470583,7.843132,7.215681,6.58823,7.215681,7.215681,7.215681,7.215681,6.58823,6.58823,5.960779,4.0784264,1.5686226,0.3137207,-1.5686321,-3.450985,-4.705887,-5.9607887,-6.5882397,-7.8431416,-7.8431416,-5.9607887,-4.705887,-3.450985,-2.196083,-0.9411812,0.3137207,0.3137207,0.3137207,0.3137207,-0.31373024,0.3137207,0.3137207
0.3137207,0.3137207,0.3137207,0.3137207,0.3137207,0.3137207,-0.31373024,-2.196083,-3.450985,-4.705887,-5.9607887,-5.333338,-4.705887,-4.078436,-4.078436,-3.450985,-2.823534,-2.196083,-2.823534,-2.823534,-2.196083,-1.5686321,-2.196083,-2.196083,-2.823534,-3.450985,-2.196083,-0.9411812,0.94117165,4.0784264,2.8235245,2.8235245,1.5686226,-0.31373024,-1.5686321,-2.196083,-4.078436,-4.078436,-4.705887,-4.078436,-3.450985,-2.823534,-1.5686321,0.3137207,0.94117165,3.4509754,4.0784264,4.7058773,4.0784264,4.0784264,3.4509754,2.8235245,2.1960735,1.5686226,0.94117165,0.3137207,-0.9411812,-0.9411812,-2.196083,-2.823534,-3.450985,-4.078436,-4.705887,-5.9607887,-5.9607887,-7.2156906,-8.4705925,-10.352945,-11.607847,-14.117651,-15.372553,-17.882357,-19.76471,-21.647062,-23.529415,-24.156866,-24.784317,-25.411768,-25.411768,-26.039219,-25.411768,-25.411768,-24.784317,-24.156866,-23.529415,-21.647062,-20.39216,-19.137259,-17.882357,-17.254906,-16.000004,-15.372553,-15.372553,-16.000004,-17.254906,-17.882357,-19.76471,-21.647062,-23.529415,-24.784317,-26.039219,-26.66667,-26.66667,-27.29412,-26.66667,-26.039219,-25.411768,-24.156866,-22.274513,-21.019611,-19.137259,-17.254906,-16.000004,-14.745102,-13.4902,-12.862749,-12.235298,-11.607847,-11.607847,-10.352945,-10.352945,-10.352945,-10.352945,-10.352945,-10.980396,-10.352945,-10.980396,-10.352945,-10.980396,-10.352945,-9.725494,-8.4705925,-7.2156906,-6.5882397,-5.333338,-4.705887,-4.078436,-3.450985,-3.450985,-4.078436,-4.078436,-4.705887,-5.9607887,-5.9607887,-5.9607887,-6.5882397,-6.5882397,-5.9607887,-5.9607887,-5.9607887,-7.2156906,-7.8431416,-8.4705925,-9.725494,-10.352945,-10.980396,-10.980396,-10.352945,-9.725494,-8.4705925,-7.2156906,-5.333338,-3.450985,-0.9411812,0.94117165,2.1960735,3.4509754,4.0784264,5.3333282,5.960779,6.58823,7.215681,8.470583,9.098034,9.098034,9.725485,9.725485,8.470583,7.215681,4.7058773,2.8235245,-0.31373024,-2.823534,-4.705887,-5.9607887,-7.8431416,-8.4705925,-8.4705925,-7.8431416,-7.2156906,-5.9607887,-4.705887,-3.450985,-1.5686321,0.3137207,1.5686226,3.4509754,4.7058773,5.960779,7.215681,8.470583,9.098034,10.352936,11.607838,12.235289,12.86274,13.4901905,13.4901905,13.4901905,13.4901905,13.4901905,13.4901905,12.86274,12.86274,13.4901905,13.4901905,13.4901905,12.86274,12.235289,11.607838,10.352936,9.098034,7.843132,6.58823,5.960779,5.3333282,5.3333282,5.3333282,4.7058773,4.7058773,4.7058773,5.3333282,4.7058773,3.4509754,2.1960735,-0.31373024,-1.5686321,-2.823534,-4.078436,-4.705887,-5.9607887,-7.2156906,-7.8431416,-7.8431416,-5.9607887,-4.705887,-3.450985,-1.5686321,-0.9411812,0.3137207,0.3137207,0.3137207,-0.31373024,-0.31373024,0.3137207,0.3137207
0.3137207,0.3137207,0.3137207,0.3137207,0.3137207,0.3137207,-0.31373024,-1.5686321,-2.823534,-4.078436,-5.9607887,-5.333338,-5.333338,-4.705887,-4.078436,-3.450985,-2.823534,-2.196083,-2.196083,-2.196083,-1.5686321,-0.9411812,-1.5686321,-1.5686321,-2.196083,-2.823534,-1.5686321,0.3137207,2.1960735,5.3333282,3.4509754,4.0784264,2.8235245,0.94117165,-0.9411812,-1.5686321,-2.823534,-3.450985,-4.078436,-4.078436,-3.450985,-2.196083,-1.5686321,-0.31373024,0.94117165,2.8235245,3.4509754,3.4509754,4.0784264,3.4509754,2.8235245,2.1960735,1.5686226,1.5686226,0.3137207,0.3137207,-0.9411812,-1.5686321,-2.196083,-3.450985,-3.450985,-4.705887,-5.333338,-5.9607887,-5.9607887,-7.2156906,-8.4705925,-9.098043,-10.980396,-12.235298,-14.117651,-16.000004,-17.882357,-19.137259,-21.019611,-22.274513,-22.901964,-24.156866,-24.784317,-24.784317,-25.411768,-24.784317,-24.156866,-23.529415,-22.274513,-22.274513,-21.019611,-19.137259,-17.882357,-16.627455,-16.000004,-15.372553,-15.372553,-15.372553,-16.627455,-17.882357,-19.76471,-21.019611,-22.901964,-24.784317,-25.411768,-26.039219,-26.66667,-26.04166,-26.039219,-25.411768,-24.784317,-23.529415,-21.647062,-19.76471,-17.882357,-16.000004,-14.117651,-12.862749,-11.607847,-10.980396,-10.980396,-9.725494,-9.725494,-10.352945,-9.725494,-9.725494,-9.725494,-9.725494,-9.098043,-9.725494,-9.725494,-9.098043,-8.4705925,-8.4705925,-7.8431416,-6.5882397,-5.9607887,-4.705887,-4.078436,-2.823534,-2.823534,-2.196083,-2.196083,-2.823534,-2.823534,-3.450985,-4.705887,-5.333338,-5.333338,-5.9607887,-5.9607887,-5.333338,-5.333338,-5.333338,-5.9607887,-6.5882397,-7.8431416,-8.4705925,-9.725494,-10.352945,-10.980396,-10.352945,-9.725494,-8.4705925,-7.2156906,-5.333338,-3.450985,-1.5686321,0.3137207,1.5686226,2.8235245,3.4509754,4.0784264,4.7058773,5.3333282,5.960779,6.58823,7.215681,7.843132,8.470583,7.843132,7.215681,5.960779,4.0784264,1.5686226,-0.9411812,-2.823534,-4.705887,-5.9607887,-7.2156906,-7.2156906,-6.5882397,-6.5882397,-5.9607887,-4.705887,-3.450985,-1.5686321,-0.31373024,1.5686226,3.4509754,4.7058773,6.58823,7.215681,8.470583,9.725485,10.980387,11.607838,12.235289,12.86274,13.4901905,13.4901905,13.4901905,13.4901905,13.4901905,12.86274,12.86274,12.235289,12.86274,12.235289,12.235289,12.86274,12.235289,11.607838,10.352936,9.098034,7.215681,5.960779,5.3333282,4.0784264,3.4509754,3.4509754,2.8235245,3.4509754,4.0784264,4.0784264,3.4509754,2.8235245,1.5686226,-0.31373024,-1.5686321,-2.823534,-4.078436,-4.705887,-5.333338,-6.5882397,-7.2156906,-8.4705925,-8.4705925,-7.2156906,-5.333338,-3.450985,-2.196083,-0.9411812,0.3137207,0.3137207,0.3137207,-0.31373024,-0.31373024,0.3137207,0.3137207
0.3137207,0.3137207,0.3137207,0.3137207,0.3137207,0.3137207,-0.31373024,-1.5686321,-2.823534,-4.705887,-6.5882397,-5.9607887,-5.333338,-4.705887,-4.078436,-3.450985,-2.823534,-2.196083,-2.196083,-2.196083,-0.9411812,-0.9411812,-0.9411812,-0.9411812,-1.5686321,-1.5686321,-0.31373024,1.5686226,3.4509754,5.960779,5.3333282,4.7058773,3.4509754,1.5686226,0.3137207,-0.9411812,-2.196083,-2.823534,-3.450985,-3.450985,-2.823534,-2.196083,-1.5686321,-0.9411812,0.3137207,1.5686226,2.8235245,2.8235245,2.8235245,2.8235245,2.1960735,1.5686226,1.5686226,0.94117165,0.3137207,-0.31373024,-0.9411812,-1.5686321,-2.196083,-2.823534,-3.450985,-4.078436,-4.705887,-5.333338,-5.9607887,-6.5882397,-7.2156906,-8.4705925,-9.725494,-10.980396,-12.235298,-13.4902,-15.372553,-17.254906,-19.137259,-19.76471,-21.647062,-22.274513,-22.901964,-23.529415,-23.529415,-24.156866,-23.529415,-23.529415,-22.901964,-22.274513,-20.39216,-19.137259,-18.509808,-17.254906,-16.000004,-15.372553,-15.372553,-16.000004,-16.000004,-17.882357,-19.137259,-20.39216,-22.274513,-23.529415,-24.784317,-25.411768,-25.411768,-26.036777,-25.409317,-24.784317,-23.529415,-22.274513,-21.019611,-19.137259,-16.627455,-14.117651,-12.862749,-10.980396,-9.725494,-9.098043,-8.4705925,-9.098043,-8.4705925,-8.4705925,-8.4705925,-8.4705925,-8.4705925,-9.098043,-8.4705925,-8.4705925,-7.8431416,-7.2156906,-7.2156906,-6.5882397,-5.9607887,-5.333338,-4.705887,-3.450985,-2.823534,-2.196083,-1.5686321,-0.9411812,-0.9411812,-1.5686321,-1.5686321,-2.823534,-3.450985,-4.078436,-4.078436,-4.705887,-4.705887,-4.705887,-4.705887,-4.078436,-5.333338,-5.9607887,-6.5882397,-8.4705925,-9.098043,-10.352945,-10.352945,-10.352945,-9.725494,-8.4705925,-7.2156906,-5.333338,-3.450985,-2.196083,0.3137207,1.5686226,2.1960735,2.8235245,3.4509754,4.0784264,4.7058773,4.7058773,5.3333282,5.960779,6.58823,6.58823,5.960779,5.3333282,4.0784264,2.8235245,0.94117165,-1.5686321,-3.450985,-4.705887,-5.333338,-5.333338,-5.333338,-5.333338,-4.705887,-4.078436,-2.823534,-1.5686321,-0.31373024,1.5686226,3.4509754,4.7058773,6.58823,7.843132,9.098034,9.725485,10.980387,11.607838,12.86274,13.4901905,13.4901905,14.117641,14.117641,13.4901905,12.86274,12.86274,12.235289,11.607838,12.235289,11.607838,12.235289,12.235289,11.607838,10.980387,10.352936,9.098034,7.215681,5.960779,4.0784264,2.8235245,2.1960735,1.5686226,1.5686226,1.5686226,2.1960735,1.5686226,1.5686226,2.1960735,0.94117165,-0.31373024,-2.196083,-3.450985,-4.078436,-4.705887,-5.333338,-5.9607887,-6.5882397,-7.8431416,-8.4705925,-8.4705925,-7.2156906,-5.333338,-3.450985,-2.196083,-0.9411812,0.3137207,0.3137207,0.3137207,-0.31373024,-0.31373024,0.3137207,0.3137207
0.3137207,0.3137207,0.3137207,0.3137207,0.3137207,0.3137207,-0.31373024,-1.5686321,-2.823534,-4.705887,-6.5882397,-6.5882397,-5.9607887,-5.333338,-4.078436,-3.450985,-2.196083,-1.5686321,-2.196083,-2.196083,-0.31373024,-0.31373024,-0.31373024,-0.9411812,-0.9411812,-0.31373024,0.94117165,2.8235245,4.7058773,7.215681,6.58823,5.960779,4.7058773,2.1960735,0.94117165,-0.31373024,-1.5686321,-2.196083,-2.823534,-2.823534,-2.823534,-2.196083,-1.5686321,-0.9411812,0.3137207,0.94117165,1.5686226,2.1960735,2.1960735,1.5686226,1.5686226,1.5686226,0.94117165,0.94117165,0.3137207,-0.31373024,-0.9411812,-0.9411812,-2.196083,-2.196083,-2.823534,-3.450985,-3.450985,-4.078436,-5.333338,-5.333338,-6.5882397,-7.2156906,-7.8431416,-8.4705925,-9.725494,-11.607847,-13.4902,-14.745102,-16.000004,-17.882357,-19.76471,-20.39216,-21.647062,-22.274513,-22.901964,-22.901964,-23.529415,-22.901964,-22.901964,-21.647062,-21.019611,-19.76471,-19.137259,-17.882357,-16.627455,-16.000004,-15.372553,-15.372553,-16.000004,-16.627455,-18.509808,-19.76471,-21.019611,-22.274513,-23.529415,-24.156866,-24.156866,-24.156866,-23.531866,-23.529415,-22.274513,-21.019611,-19.137259,-17.254906,-14.745102,-12.862749,-10.980396,-9.098043,-8.4705925,-7.2156906,-7.2156906,-7.2156906,-7.8431416,-7.2156906,-7.2156906,-7.2156906,-7.2156906,-7.2156906,-7.2156906,-6.5882397,-5.9607887,-5.333338,-5.333338,-4.705887,-4.078436,-3.450985,-2.823534,-2.196083,-1.5686321,-0.9411812,-0.31373024,0.3137207,0.3137207,0.3137207,-0.9411812,-0.9411812,-1.5686321,-2.196083,-2.823534,-3.450985,-3.450985,-2.823534,-2.823534,-3.450985,-4.078436,-4.705887,-5.9607887,-7.2156906,-8.4705925,-9.725494,-9.725494,-9.725494,-9.098043,-7.8431416,-6.5882397,-5.333338,-2.823534,-1.5686321,-0.31373024,1.5686226,2.1960735,2.8235245,3.4509754,3.4509754,4.0784264,4.0784264,4.7058773,4.0784264,4.0784264,4.7058773,4.0784264,3.4509754,2.8235245,0.94117165,-0.31373024,-2.196083,-3.450985,-4.078436,-4.705887,-4.705887,-4.078436,-4.078436,-2.823534,-2.196083,-0.9411812,0.3137207,1.5686226,3.4509754,4.7058773,6.58823,7.843132,9.098034,9.725485,10.980387,11.607838,12.235289,12.86274,13.4901905,14.117641,14.117641,13.4901905,12.86274,12.235289,12.235289,10.980387,10.980387,10.352936,10.352936,10.352936,10.980387,10.352936,9.725485,8.470583,7.215681,5.960779,4.0784264,2.8235245,1.5686226,0.3137207,-0.31373024,0.3137207,0.3137207,0.3137207,0.3137207,0.3137207,0.3137207,-0.31373024,-2.196083,-4.078436,-4.705887,-5.333338,-5.9607887,-6.5882397,-6.5882397,-7.2156906,-7.8431416,-8.4705925,-9.098043,-7.8431416,-5.333338,-3.450985,-1.5686321,-0.9411812,0.3137207,0.3137207,0.3137207,-0.31373024,-0.9411812,0.3137207,0.3137207
0.3137207,0.3137207,0.3137207,0.3137207,0.3137207,0.3137207,-0.31373024,-1.5686321,-2.823534,-4.078436,-5.9607887,-6.5882397,-5.9607887,-5.333338,-4.078436,-3.450985,-2.196083,-1.5686321,-1.5686321,-1.5686321,-0.31373024,0.3137207,-0.31373024,-0.31373024,-0.31373024,0.94117165,1.5686226,4.0784264,5.3333282,7.215681,7.215681,6.58823,5.3333282,3.4509754,2.1960735,0.3137207,-0.31373024,-1.5686321,-2.196083,-2.196083,-2.823534,-2.196083,-1.5686321,-0.9411812,-0.31373024,0.3137207,0.94117165,1.5686226,0.94117165,1.5686226,0.94117165,0.94117165,0.94117165,0.94117165,0.94117165,0.3137207,0.3137207,-0.31373024,-0.9411812,-1.5686321,-1.5686321,-2.196083,-2.196083,-3.450985,-3.450985,-4.078436,-4.705887,-5.333338,-5.9607887,-7.2156906,-8.4705925,-9.098043,-10.352945,-12.235298,-14.117651,-16.000004,-17.254906,-18.509808,-19.76471,-21.019611,-21.647062,-22.274513,-22.901964,-22.274513,-22.274513,-22.274513,-21.647062,-21.019611,-19.76471,-18.509808,-17.254906,-16.627455,-16.000004,-15.372553,-16.000004,-16.627455,-17.254906,-19.137259,-20.39216,-21.019611,-22.274513,-22.274513,-22.901964,-22.899523,-22.274513,-21.647062,-21.019611,-19.137259,-17.254906,-16.000004,-13.4902,-10.980396,-9.098043,-7.2156906,-5.9607887,-5.333338,-5.333338,-5.9607887,-5.9607887,-6.5882397,-6.5882397,-5.9607887,-5.9607887,-5.9607887,-5.333338,-4.705887,-4.078436,-3.450985,-3.450985,-2.823534,-2.196083,-2.196083,-1.5686321,-0.9411812,-0.31373024,0.3137207,0.94117165,1.5686226,1.5686226,0.94117165,0.94117165,0.3137207,-0.31373024,-0.9411812,-1.5686321,-2.196083,-2.196083,-2.196083,-2.823534,-2.196083,-3.450985,-4.078436,-5.333338,-5.9607887,-7.8431416,-8.4705925,-9.098043,-9.098043,-8.4705925,-7.2156906,-5.9607887,-4.078436,-2.823534,-1.5686321,-0.31373024,0.94117165,2.1960735,2.8235245,3.4509754,3.4509754,3.4509754,3.4509754,3.4509754,3.4509754,2.8235245,2.1960735,2.1960735,1.5686226,0.94117165,-0.31373024,-1.5686321,-2.196083,-2.823534,-3.450985,-3.450985,-3.450985,-2.823534,-2.196083,-1.5686321,-0.31373024,0.3137207,1.5686226,3.4509754,4.7058773,5.960779,7.843132,9.098034,9.725485,10.980387,11.607838,11.607838,12.86274,13.4901905,13.4901905,13.4901905,13.4901905,12.86274,12.235289,11.607838,10.980387,10.352936,10.352936,9.098034,9.098034,9.098034,9.098034,9.098034,8.470583,7.215681,5.960779,4.0784264,2.8235245,0.94117165,-0.31373024,-0.9411812,-1.5686321,-1.5686321,-0.9411812,-0.9411812,-0.9411812,-0.9411812,-0.9411812,-2.196083,-3.450985,-5.333338,-5.9607887,-7.2156906,-7.2156906,-7.2156906,-7.8431416,-7.8431416,-8.4705925,-9.098043,-9.098043,-7.8431416,-5.9607887,-2.823534,-1.5686321,-0.31373024,0.3137207,0.3137207,0.3137207,-0.31373024,-0.9411812,0.3137207,0.3137207
0.3137207,0.3137207,0.3137207,0.3137207,0.3137207,-0.31373024,-1.5686321,-2.823534,-4.078436,-5.333338,-6.5882397,-7.2156906,-6.5882397,-5.333338,-4.078436,-3.450985,-2.196083,-0.9411812,-1.5686321,-0.9411812,0.3137207,0.94117165,0.94117165,0.3137207,0.3137207,1.5686226,2.1960735,4.0784264,6.58823,7.843132,8.470583,7.843132,6.58823,4.7058773,2.8235245,1.5686226,0.3137207,-0.9411812,-1.5686321,-2.196083,-2.196083,-2.196083,-2.196083,-1.5686321,-1.5686321,-0.31373024,-0.31373024,0.3137207,0.94117165,0.94117165,0.94117165,0.94117165,1.5686226,1.5686226,0.94117165,1.5686226,0.94117165,0.94117165,0.3137207,0.3137207,-0.31373024,-0.9411812,-0.9411812,-1.5686321,-1.5686321,-2.196083,-2.196083,-2.823534,-4.078436,-4.705887,-5.333338,-6.5882397,-8.4705925,-10.352945,-12.235298,-14.117651,-16.000004,-17.254906,-18.509808,-19.137259,-20.39216,-21.019611,-21.647062,-21.647062,-22.274513,-22.274513,-21.647062,-21.019611,-20.39216,-19.137259,-17.882357,-17.254906,-16.000004,-16.000004,-16.000004,-16.000004,-17.254906,-17.882357,-19.137259,-19.76471,-20.39216,-20.394611,-20.39216,-20.39217,-20.39216,-19.76471,-19.137259,-17.254906,-16.000004,-13.4902,-11.607847,-9.098043,-7.2156906,-5.333338,-4.078436,-4.078436,-4.078436,-3.450985,-4.078436,-4.078436,-4.705887,-4.705887,-4.078436,-4.078436,-3.450985,-2.823534,-2.823534,-1.5686321,-1.5686321,-1.5686321,-0.9411812,-0.9411812,-0.31373024,0.3137207,0.94117165,1.5686226,2.8235245,2.1960735,2.8235245,2.1960735,2.1960735,1.5686226,0.94117165,0.3137207,-0.31373024,-0.31373024,-1.5686321,-0.9411812,-1.5686321,-1.5686321,-2.196083,-2.823534,-4.078436,-5.333338,-6.5882397,-7.2156906,-7.2156906,-7.2156906,-7.2156906,-5.9607887,-5.333338,-3.450985,-2.196083,-0.31373024,0.3137207,1.5686226,2.8235245,3.4509754,4.0784264,4.0784264,3.4509754,2.8235245,2.8235245,2.1960735,0.94117165,0.94117165,0.3137207,-0.31373024,-0.9411812,-1.5686321,-2.196083,-2.196083,-2.823534,-2.823534,-2.196083,-1.5686321,-1.5686321,-0.31373024,0.3137207,0.94117165,2.1960735,3.4509754,4.7058773,5.960779,7.215681,8.470583,9.725485,10.352936,10.980387,11.607838,12.235289,12.235289,12.86274,12.86274,12.86274,12.86274,12.235289,11.607838,10.352936,9.725485,9.725485,8.470583,8.470583,7.843132,7.843132,7.843132,7.843132,6.58823,5.960779,4.0784264,2.8235245,0.94117165,-0.31373024,-1.5686321,-2.823534,-3.450985,-3.450985,-2.196083,-2.196083,-2.196083,-2.196083,-2.196083,-3.450985,-5.333338,-6.5882397,-7.2156906,-7.8431416,-7.8431416,-8.4705925,-8.4705925,-9.098043,-9.098043,-9.098043,-9.098043,-7.8431416,-5.9607887,-2.823534,-1.5686321,-0.31373024,0.3137207,0.3137207,0.3137207,-0.31373024,-0.9411812,0.3137207,0.3137207
0.3137207,0.3137207,0.3137207,0.3137207,0.3137207,-0.9411812,-2.823534,-4.078436,-5.333338,-6.5882397,-7.2156906,-7.2156906,-6.5882397,-5.9607887,-4.705887,-3.450985,-1.5686321,-0.9411812,-0.9411812,-0.9411812,0.3137207,0.94117165,1.5686226,0.94117165,0.94117165,2.1960735,2.8235245,4.7058773,7.215681,8.470583,9.725485,8.470583,7.215681,5.960779,4.0784264,2.8235245,0.94117165,0.3137207,-0.9411812,-1.5686321,-2.196083,-2.196083,-2.196083,-2.196083,-1.5686321,-1.5686321,-0.9411812,-0.9411812,-0.31373024,0.3137207,0.94117165,0.94117165,1.5686226,2.1960735,1.5686226,1.5686226,2.1960735,1.5686226,2.1960735,1.5686226,1.5686226,1.5686226,0.94117165,0.94117165,0.31617165,0.3137207,-0.31373024,-0.9411812,-1.5686321,-2.823534,-3.453436,-5.333338,-6.5882397,-8.4705925,-10.352945,-12.235298,-14.117651,-16.000004,-17.254906,-18.509808,-19.137259,-19.76471,-21.019611,-21.647062,-21.647062,-22.274513,-21.647062,-21.647062,-21.019611,-19.76471,-19.137259,-17.882357,-16.627455,-16.000004,-16.000004,-16.000004,-16.627455,-17.254906,-17.882357,-17.882357,-18.512259,-19.134817,-19.137259,-19.137259,-18.509817,-17.882357,-17.254906,-15.372553,-14.117651,-12.235298,-9.725494,-7.2156906,-5.333338,-3.450985,-2.823534,-2.196083,-2.196083,-2.196083,-2.196083,-2.823534,-2.823534,-2.823534,-2.823534,-2.196083,-1.5686321,-0.9411812,-0.9411812,-0.31373024,0.3137207,0.3137207,0.3137207,0.94117165,1.5686226,1.5686226,2.1960735,3.4509754,3.4509754,4.7058773,4.0784264,4.0784264,3.4509754,3.4509754,2.8235245,2.1960735,0.94117165,0.3137207,-0.31373024,-0.9411812,-0.9411812,-0.9411812,-1.5686321,-2.196083,-3.450985,-4.705887,-5.333338,-6.5882397,-5.9607887,-5.9607887,-5.9607887,-4.705887,-4.078436,-2.823534,-1.5686321,0.3137207,1.5686226,2.8235245,3.4509754,4.0784264,4.0784264,4.0784264,4.0784264,3.4509754,2.1960735,1.5686226,0.3137207,-0.31373024,-0.9411812,-1.5686321,-2.196083,-2.823534,-2.823534,-2.823534,-2.196083,-2.196083,-1.5686321,-0.31373024,0.3137207,0.94117165,1.5686226,2.8235245,3.4509754,4.7058773,5.960779,7.215681,8.470583,9.725485,10.352936,10.980387,11.607838,11.607838,11.607838,12.235289,12.235289,12.235289,11.607838,11.607838,10.980387,10.352936,9.098034,9.098034,7.843132,7.215681,7.215681,6.58823,6.58823,5.960779,5.960779,5.3333282,4.0784264,2.8235245,1.5686226,-0.31373024,-2.196083,-3.450985,-4.078436,-4.705887,-4.705887,-4.078436,-2.823534,-2.823534,-2.823534,-2.823534,-4.705887,-5.9607887,-7.8431416,-8.4705925,-9.098043,-9.725494,-9.098043,-9.098043,-9.098043,-9.098043,-9.098043,-9.725494,-8.4705925,-5.9607887,-3.450985,-0.9411812,-0.31373024,0.3137207,0.3137207,0.3137207,-0.31373024,-0.9411812,0.3137207,0.3137207
0.3137207,0.3137207,0.3137207,0.3137207,0.3137207,-0.9411812,-2.196083,-4.078436,-5.9607887,-7.2156906,-7.8431416,-7.8431416,-7.2156906,-5.9607887,-4.078436,-2.823534,-1.5686321,-0.9411812,-0.9411812,-0.31373024,0.94117165,1.5686226,2.1960735,1.5686226,1.5686226,2.8235245,3.4509754,4.7058773,7.843132,9.098034,10.352936,9.725485,8.470583,7.215681,5.3333282,3.4509754,2.1960735,0.94117165,-0.31373024,-0.9411812,-1.5686321,-2.196083,-2.823534,-2.823534,-2.823534,-2.196083,-2.196083,-1.5686321,-0.9411812,0.3137207,0.3137207,1.5686226,2.1960735,2.1960735,2.8235245,3.4509754,2.8235245,2.8235245,2.8235245,3.4509754,3.4509754,3.4509754,3.4509754,3.4509754,2.8235245,2.8235245,2.1960735,1.5686226,0.94117165,-0.31373024,-2.1936321,-3.450985,-5.333338,-7.8431416,-9.725494,-11.607847,-13.4902,-14.745102,-16.627455,-17.254906,-18.509808,-19.137259,-20.39216,-21.019611,-21.647062,-22.274513,-22.274513,-21.647062,-21.019611,-20.39216,-19.137259,-17.882357,-17.254906,-16.000004,-16.000004,-16.000004,-16.000004,-16.627455,-16.627455,-16.627455,-17.882357,-17.254906,-17.254906,-17.254906,-17.879906,-16.627455,-15.372553,-14.117651,-12.235298,-9.727936,-7.8431416,-5.9607887,-3.450985,-2.196083,-0.9411812,-0.31373024,0.3137207,-0.31373024,-0.9411812,-1.5686321,-1.5686321,-0.9411812,-0.31373024,-0.31373024,0.3137207,0.94117165,1.5686226,1.5686226,2.1960735,2.1960735,2.8235245,2.8235245,2.8235245,3.4509754,4.0784264,4.7058773,5.3333282,5.3333282,5.960779,5.3333282,5.3333282,4.7058773,4.0784264,2.8235245,2.1960735,0.94117165,0.3137207,-0.31373024,-0.31373024,-0.9411812,-1.5686321,-2.196083,-2.823534,-3.450985,-4.705887,-5.333338,-4.705887,-5.333338,-4.705887,-3.450985,-2.823534,-2.196083,-0.31373024,0.94117165,2.1960735,3.4509754,4.0784264,5.3333282,4.7058773,4.7058773,4.0784264,2.8235245,2.1960735,1.5686226,0.3137207,-0.9411812,-2.196083,-2.823534,-2.823534,-2.823534,-2.823534,-2.196083,-2.196083,-0.9411812,-0.31373024,0.3137207,1.5686226,2.1960735,3.4509754,4.0784264,4.7058773,5.960779,6.5906715,7.843132,9.098034,9.725485,10.980387,10.980387,10.980387,11.607838,11.607838,10.980387,11.607838,11.607838,10.352936,10.352936,9.725485,9.098034,8.470583,7.843132,6.58823,5.960779,5.960779,5.960779,5.3333282,5.3333282,4.0784264,4.0784264,2.8235245,1.5686226,-0.31373024,-2.196083,-3.450985,-4.705887,-5.333338,-5.9607887,-5.9607887,-4.705887,-4.078436,-4.078436,-3.450985,-4.078436,-5.333338,-7.8431416,-9.098043,-10.352945,-10.352945,-10.352945,-10.352945,-9.725494,-9.725494,-9.725494,-9.098043,-9.098043,-8.4705925,-6.5882397,-3.450985,-0.9411812,-0.31373024,0.3137207,0.3137207,0.3137207,-0.31373024,-0.9411812,0.3137207,0.3137207
0.3137207,0.3137207,0.3137207,0.3137207,0.3137207,-0.31373024,-2.196083,-4.078436,-5.333338,-6.5882397,-7.8431416,-7.8431416,-7.2156906,-5.9607887,-4.078436,-2.823534,-1.5686321,-0.31373024,-0.31373024,-0.31373024,1.5686226,2.1960735,2.1960735,2.1960735,2.1960735,2.8235245,4.0784264,5.3333282,8.470583,9.725485,10.980387,10.352936,9.725485,7.843132,6.58823,4.7058773,2.8235245,1.5686226,0.3137207,-0.9411812,-2.196083,-2.196083,-3.450985,-3.450985,-3.450985,-3.450985,-2.823534,-2.196083,-0.9411812,0.3137207,0.3137207,1.5686226,2.1960735,2.8235245,4.0784264,4.0784264,4.0784264,4.0784264,4.7058773,5.3333282,5.3333282,5.3333282,5.3333282,5.3333282,5.3333282,5.3333282,4.7058773,4.0784264,2.8235245,1.5686226,-0.31373024,-2.1936417,-4.705887,-6.5882397,-9.098043,-10.980396,-12.862749,-14.745102,-15.372553,-17.254906,-17.882357,-18.509808,-20.39216,-21.019611,-21.019611,-21.647062,-22.274513,-22.274513,-21.019611,-21.019611,-19.76471,-19.137259,-17.254906,-16.627455,-16.000004,-15.372553,-15.372553,-15.372553,-16.000004,-15.372553,-16.627455,-16.000004,-16.000004,-16.000004,-16.625004,-15.372553,-14.117651,-12.235298,-10.980396,-8.468151,-5.9607887,-3.450985,-2.196083,-0.31373024,0.3137207,1.5686226,1.5686226,1.5686226,0.3137207,0.94117165,0.94117165,0.94117165,0.94117165,1.5686226,2.1960735,2.8235245,3.4509754,3.4509754,4.0784264,4.0784264,4.7058773,4.7058773,5.3333282,5.960779,5.960779,6.58823,7.215681,7.843132,7.215681,7.215681,6.58823,5.960779,5.3333282,4.0784264,2.8235245,1.5686226,0.94117165,0.3137207,-0.31373024,-0.9411812,-0.9411812,-2.196083,-2.196083,-3.450985,-3.450985,-3.450985,-3.450985,-3.450985,-3.450985,-2.823534,-1.5686321,-0.9411812,0.3137207,1.5686226,2.8235245,4.0784264,5.3333282,5.3333282,5.960779,5.3333282,4.7058773,4.0784264,2.1960735,1.5686226,0.3137207,-1.5686321,-2.196083,-2.823534,-2.823534,-2.823534,-2.823534,-2.196083,-1.5686321,-0.31373024,0.3137207,1.5686226,2.8235245,3.4509754,4.0784264,5.3333282,5.960779,6.58823,7.843132,8.473034,9.098034,10.352936,10.977936,10.980387,10.980387,10.980387,10.980387,10.980387,9.725485,9.725485,9.725485,8.470583,7.843132,7.215681,6.58823,5.960779,5.3333282,5.3333282,4.7058773,4.0784264,3.4509754,3.4509754,3.4509754,2.1960735,1.5686226,-0.31373024,-1.5686321,-3.450985,-4.705887,-5.333338,-6.5882397,-7.2156906,-6.5882397,-5.9607887,-5.9607887,-4.705887,-4.705887,-4.705887,-5.9607887,-8.4705925,-10.352945,-10.980396,-11.607847,-11.607847,-10.980396,-10.980396,-9.725494,-9.725494,-9.098043,-8.4705925,-7.8431416,-6.5882397,-3.450985,-1.5686321,-0.31373024,0.3137207,0.3137207,0.3137207,-0.31373024,-0.9411812,0.3137207,0.3137207
0.3137207,0.3137207,0.3137207,0.3137207,0.3137207,0.3137207,-0.9411812,-2.823534,-4.705887,-6.5882397,-7.8431416,-8.4705925,-7.2156906,-5.9607887,-4.078436,-2.823534,-0.9411812,-0.31373024,-0.31373024,0.94117165,1.5686226,2.1960735,3.4509754,2.8235245,2.8235245,3.4509754,4.7058773,5.960779,9.098034,10.352936,12.235289,11.607838,10.980387,9.725485,7.215681,5.960779,4.0784264,2.1960735,0.3137207,-0.31373024,-1.5686321,-2.823534,-4.078436,-4.078436,-4.078436,-3.450985,-2.823534,-2.196083,-0.9411812,-0.31373024,0.94117165,2.1960735,2.8235245,4.0784264,4.0784264,5.3333282,5.3333282,5.3333282,5.960779,5.960779,7.215681,7.215681,7.843132,7.843132,7.843132,7.215681,7.215681,5.960779,4.7058773,3.4485245,1.5686226,-1.5661907,-3.450985,-5.9607887,-8.4705925,-10.352945,-12.862749,-14.117651,-16.000004,-17.254906,-17.882357,-18.509808,-20.39216,-20.39216,-21.647062,-22.274513,-22.274513,-22.274513,-21.019611,-20.39216,-20.39216,-18.509808,-17.882357,-17.254906,-16.000004,-15.372553,-14.745102,-14.745102,-14.117651,-14.117651,-15.372553,-14.745102,-14.745102,-15.372553,-14.747543,-14.1176605,-13.4901905,-11.607838,-9.725494,-7.2156906,-4.078436,-2.196083,-0.31373024,0.94117165,2.1960735,2.1960735,2.8235245,2.1960735,2.1960735,1.5686226,2.1960735,2.8235245,3.4509754,4.0784264,4.7058773,5.3333282,5.3333282,5.960779,5.960779,6.58823,6.58823,6.58823,7.215681,7.843132,7.843132,8.470583,9.098034,9.725485,9.098034,9.098034,7.843132,7.215681,5.960779,4.7058773,2.8235245,1.5686226,0.94117165,0.3137207,-0.31373024,-0.9411812,-1.5686321,-2.196083,-2.823534,-2.823534,-2.823534,-2.823534,-2.823534,-1.5686321,-1.5686321,-0.9411812,-0.31373024,0.3137207,1.5686226,2.8235245,4.0784264,5.3333282,5.960779,6.58823,6.58823,6.58823,5.3333282,4.0784264,3.4509754,1.5686226,0.3137207,-0.9411812,-1.5686321,-2.196083,-2.823534,-2.196083,-2.196083,-0.9411812,-0.31373024,0.3137207,0.94117165,2.8235245,3.4509754,4.0784264,5.3333282,5.960779,6.58823,7.218132,8.470583,9.098034,9.725485,10.352936,10.352936,10.352936,10.352936,9.725485,9.725485,9.725485,8.470583,8.470583,7.843132,6.58823,5.960779,5.3333282,4.7058773,4.0784264,3.4509754,3.4509754,2.8235245,2.8235245,2.1960735,2.1960735,2.1960735,0.94117165,0.3137207,-1.5686321,-2.823534,-4.078436,-5.333338,-6.5882397,-7.2156906,-7.2156906,-7.2156906,-7.2156906,-6.5882397,-6.5882397,-5.9607887,-5.9607887,-7.2156906,-9.098043,-11.607847,-12.235298,-12.235298,-12.235298,-12.235298,-10.980396,-10.352945,-9.098043,-7.8431416,-7.2156906,-6.5882397,-5.9607887,-3.450985,-1.5686321,-0.31373024,0.3137207,0.3137207,0.3137207,-0.31373024,-0.9411812,0.3137207,0.3137207
0.3137207,0.3137207,0.3137207,0.3137207,0.3137207,0.3137207,-0.9411812,-2.823534,-4.705887,-6.5882397,-7.8431416,-7.8431416,-7.2156906,-5.9607887,-3.450985,-2.196083,-0.9411812,0.3137207,-0.31373024,0.3137207,2.1960735,2.8235245,4.0784264,4.0784264,3.4509754,4.0784264,5.3333282,7.215681,9.725485,10.980387,12.86274,12.235289,11.607838,10.352936,8.470583,6.58823,4.7058773,2.8235245,0.94117165,-0.31373024,-1.5686321,-3.450985,-4.078436,-4.078436,-4.078436,-4.078436,-3.450985,-2.823534,-0.9411812,-0.31373024,0.3137207,1.5686226,3.4509754,4.0784264,4.7058773,5.960779,5.960779,6.58823,7.215681,7.215681,7.843132,9.098034,9.098034,9.725485,9.725485,9.725485,9.098034,7.843132,6.58823,4.0808773,2.8210735,0.3137207,-2.823534,-5.333338,-7.8431416,-10.352945,-12.235298,-14.117651,-16.000004,-16.627455,-17.882357,-19.137259,-20.39216,-21.019611,-21.647062,-21.647062,-21.647062,-21.647062,-21.019611,-21.019611,-19.76471,-18.509808,-17.882357,-16.627455,-15.372553,-14.745102,-14.117651,-14.117651,-14.117651,-13.4902,-14.117651,-13.492641,-14.117651,-14.745102,-14.117651,-13.4902,-12.235298,-10.352945,-8.470583,-5.9607887,-3.450985,-0.9411812,0.94117165,2.1960735,3.4509754,4.0784264,4.0784264,4.0784264,4.0784264,4.0784264,3.4509754,4.0784264,4.7058773,5.960779,6.58823,7.843132,7.843132,8.470583,8.470583,8.470583,8.470583,9.098034,9.098034,9.725485,10.352936,10.352936,10.352936,10.352936,10.980387,10.352936,9.098034,8.470583,6.58823,4.7058773,3.4509754,1.5686226,0.3137207,-0.31373024,-0.9411812,-1.5686321,-2.196083,-2.196083,-2.196083,-2.196083,-2.196083,-2.196083,-0.9411812,-0.9411812,-0.31373024,0.3137207,0.94117165,2.1960735,2.8235245,4.0784264,5.3333282,5.960779,7.215681,7.215681,7.215681,6.58823,5.960779,5.3333282,4.0784264,2.1960735,0.94117165,0.3137207,-0.9411812,-1.5686321,-0.9411812,-0.9411812,-0.9411812,-0.31373024,0.3137207,0.94117165,1.5686226,3.4509754,4.0784264,4.7058773,5.960779,6.58823,6.58823,7.218132,8.470583,9.100475,9.725485,10.350494,9.727926,10.352936,9.725485,9.098034,9.098034,8.470583,7.843132,6.58823,5.960779,5.3333282,4.0784264,3.4509754,2.8235245,2.1960735,2.1960735,1.5686226,1.5686226,2.1960735,1.5686226,1.5686226,0.94117165,0.3137207,-0.9411812,-2.196083,-3.450985,-5.333338,-6.5882397,-7.2156906,-7.8431416,-8.4705925,-8.4705925,-7.8431416,-7.8431416,-7.2156906,-7.2156906,-7.2156906,-8.4705925,-10.352945,-12.862749,-13.4902,-13.4902,-13.4902,-12.235298,-11.607847,-10.352945,-8.4705925,-7.8431416,-6.5882397,-5.333338,-4.705887,-3.450985,-1.5686321,-0.31373024,0.3137207,0.3137207,0.3137207,-0.31373024,-0.9411812,0.3137207,0.3137207
0.3137207,0.3137207,0.3137207,0.3137207,0.3137207,0.3137207,-0.9411812,-2.823534,-4.705887,-6.5882397,-7.8431416,-7.8431416,-6.5882397,-5.333338,-3.450985,-2.196083,-0.9411812,0.3137207,0.3137207,0.94117165,2.8235245,3.4509754,4.7058773,4.7058773,4.0784264,5.3333282,5.960779,7.843132,10.352936,12.235289,14.117641,13.4901905,12.235289,10.980387,9.098034,6.58823,4.7058773,2.8235245,0.94117165,-0.31373024,-2.196083,-3.450985,-4.078436,-4.078436,-4.078436,-3.450985,-2.823534,-2.196083,-0.9411812,-0.31373024,0.3137207,1.5686226,2.8235245,4.0784264,5.3333282,6.58823,6.58823,7.215681,7.843132,8.470583,9.098034,10.352936,10.980387,11.607838,10.982838,11.607838,10.352936,9.725485,7.843132,5.335779,3.4534264,0.31617165,-2.196083,-5.3308964,-7.8431416,-10.352945,-12.862749,-14.745102,-16.000004,-17.254906,-19.137259,-19.76471,-21.019611,-21.647062,-21.647062,-21.647062,-21.647062,-21.019611,-21.019611,-19.76471,-19.76471,-18.509808,-17.882357,-16.000004,-16.000004,-14.117651,-14.117651,-12.862749,-12.862749,-12.235298,-12.235298,-12.862749,-12.8652,-13.4901905,-13.4902,-12.235298,-10.980396,-9.098053,-7.2156906,-4.705887,-2.196083,0.3137207,2.1960735,4.0784264,4.7058773,4.7058773,5.3333282,5.3333282,5.3333282,5.3333282,5.960779,5.960779,7.215681,8.470583,9.098034,9.725485,10.352936,10.980387,10.980387,10.980387,10.980387,10.980387,10.980387,11.607838,12.235289,11.607838,12.86274,12.86274,11.607838,10.980387,10.352936,9.098034,7.215681,5.3333282,3.4509754,1.5686226,0.3137207,-0.9411812,-1.5686321,-2.196083,-2.196083,-2.196083,-2.196083,-2.196083,-1.5686321,-0.9411812,-0.31373024,0.3137207,0.3137207,0.94117165,2.1960735,2.8235245,4.0784264,4.7058773,5.960779,7.215681,7.215681,7.843132,7.215681,7.215681,6.58823,5.3333282,4.7058773,3.4509754,2.1960735,1.5686226,0.3137207,0.3137207,0.3137207,0.3137207,-0.31373024,0.94117165,0.94117165,1.5686226,2.8235245,3.4509754,4.0784264,5.3333282,5.3333282,6.58823,6.58823,7.843132,8.470583,9.098034,9.098043,9.725485,9.725485,9.098034,8.470583,7.843132,7.215681,6.58823,5.960779,4.7058773,3.4509754,2.8235245,1.5686226,0.94117165,0.3137207,0.3137207,0.3137207,0.3137207,0.94117165,0.3137207,0.3137207,0.3137207,0.3137207,-0.9411812,-1.5686321,-2.823534,-4.078436,-4.705887,-5.9607887,-7.2156906,-8.4705925,-8.4705925,-9.098043,-9.098043,-9.098043,-9.098043,-8.4705925,-9.098043,-9.098043,-10.352945,-13.4902,-14.745102,-14.117651,-13.4902,-12.862749,-11.607847,-9.725494,-7.8431416,-6.5882397,-5.333338,-4.078436,-4.078436,-2.823534,-1.5686321,-0.31373024,-0.31373024,0.3137207,0.3137207,-0.31373024,-0.9411812,0.3137207,0.3137207
0.3137207,0.3137207,0.3137207,0.3137207,0.3137207,0.3137207,-0.9411812,-2.196083,-3.450985,-5.333338,-7.2156906,-7.8431416,-6.5882397,-5.333338,-3.450985,-2.196083,-0.31373024,0.3137207,0.3137207,1.5686226,3.4509754,3.4509754,5.3333282,5.3333282,4.7058773,5.960779,6.58823,9.098034,11.607838,13.4901905,14.117641,13.4901905,12.235289,10.352936,8.470583,6.58823,4.7058773,2.8235245,0.94117165,-0.9411812,-2.823534,-3.450985,-4.078436,-4.078436,-3.450985,-3.450985,-2.823534,-2.196083,-1.5686321,-0.31373024,0.3137207,1.5686226,2.8235245,4.0784264,5.960779,6.58823,7.215681,7.843132,8.470583,9.725485,10.352936,10.980387,12.235289,12.235289,13.4901905,12.86274,12.235289,10.980387,9.098034,6.5882397,4.7034264,1.5686226,-1.5686321,-4.705887,-7.8431416,-10.352945,-12.860298,-14.117651,-16.627455,-17.882357,-19.137259,-19.76471,-21.019611,-21.019611,-21.647062,-21.647062,-21.019611,-20.39216,-19.76471,-19.137259,-18.509808,-17.882357,-17.254906,-16.000004,-15.372553,-14.117651,-13.4902,-12.862749,-12.235298,-12.235298,-12.235298,-11.607847,-12.235298,-12.235298,-12.235298,-10.980406,-10.352936,-8.4705925,-5.9607887,-3.450985,-0.9411812,1.5686226,3.4509754,4.7058773,5.3333282,6.58823,6.58823,5.960779,6.58823,6.58823,7.215681,7.843132,9.098034,10.352936,11.607838,12.235289,12.86274,12.86274,13.4901905,12.86274,12.86274,12.86274,13.4901905,12.86274,12.86274,14.117641,13.4901905,13.4901905,12.86274,12.235289,10.980387,9.725485,7.215681,5.3333282,3.4509754,1.5686226,-0.31373024,-0.9411812,-2.196083,-2.823534,-2.823534,-2.823534,-2.196083,-1.5686321,-0.9411812,-0.31373024,0.3137207,0.94117165,1.5686226,2.1960735,2.8235245,4.0784264,4.7058773,5.960779,6.58823,7.215681,7.843132,7.843132,7.843132,7.215681,6.58823,5.3333282,5.3333282,4.0784264,2.8235245,2.8235245,2.1960735,0.94117165,1.5686226,1.5686226,0.94117165,2.1960735,2.1960735,2.8235245,3.4509754,3.4509754,4.0784264,5.3333282,5.3333282,5.960779,6.58823,7.215681,7.843132,8.470583,8.473034,8.473024,8.468142,7.843132,7.215681,6.58823,5.3333282,4.7058773,4.0784264,2.8235245,2.1960735,0.3137207,-0.31373024,-0.9411812,-1.5686321,-1.5686321,-1.5686321,-1.5686321,-0.9411812,-0.9411812,-0.31373024,-0.31373024,-0.31373024,-0.9411812,-1.5686321,-2.823534,-3.450985,-5.333338,-6.5882397,-7.2156906,-8.4705925,-8.4705925,-9.098043,-9.098043,-9.725494,-9.725494,-10.352945,-10.352945,-10.980396,-11.607847,-14.117651,-15.372553,-14.745102,-14.117651,-12.862749,-10.980396,-9.098043,-7.2156906,-5.9607887,-4.705887,-3.450985,-2.823534,-2.823534,-1.5686321,-0.31373024,-0.31373024,-0.31373024,-0.31373024,-0.31373024,-0.9411812,0.3137207,0.3137207
0.3137207,0.3137207,0.3137207,0.3137207,0.3137207,0.3137207,-0.31373024,-2.196083,-3.450985,-4.705887,-5.9607887,-6.5882397,-5.333338,-4.705887,-2.823534,-1.5686321,-0.31373024,0.94117165,0.94117165,1.5686226,3.4509754,4.0784264,5.3333282,5.960779,5.3333282,6.58823,7.215681,9.725485,12.235289,14.117641,14.117641,12.86274,11.607838,10.352936,8.470583,5.960779,4.0784264,2.1960735,-0.31373024,-1.5686321,-2.823534,-3.450985,-3.450985,-3.450985,-3.450985,-2.823534,-2.196083,-2.196083,-1.5686321,-0.31373024,0.3137207,1.5686226,2.8235245,4.0784264,5.3333282,6.58823,7.843132,8.470583,8.470583,9.725485,10.980387,11.607838,12.86274,13.4901905,14.117641,14.117641,13.4901905,11.610279,10.352936,7.843132,4.7083282,2.1960735,-1.5661812,-4.080887,-7.2156906,-10.352945,-12.862749,-14.745102,-16.627455,-17.882357,-19.137259,-20.39216,-21.019611,-21.019611,-21.019611,-20.39216,-20.39216,-19.137259,-18.509808,-17.882357,-17.882357,-17.254906,-16.627455,-15.372553,-14.745102,-13.4902,-13.4902,-12.235298,-11.607847,-10.980396,-10.980396,-10.980396,-10.980406,-11.607847,-10.980396,-10.352945,-8.470602,-7.2156906,-4.705887,-1.5686321,0.94117165,2.8235245,4.7058773,5.960779,6.58823,7.215681,7.843132,7.843132,8.470583,8.470583,9.098034,10.352936,11.607838,12.235289,13.4901905,14.117641,14.745092,15.372543,15.372543,15.372543,14.745092,15.372543,14.745092,14.745092,14.117641,14.117641,14.745092,14.117641,13.4901905,12.235289,11.607838,9.725485,7.215681,5.3333282,2.8235245,0.94117165,-0.9411812,-1.5686321,-2.196083,-2.823534,-2.823534,-2.196083,-1.5686321,-0.9411812,-0.31373024,0.3137207,0.94117165,1.5686226,2.8235245,2.8235245,4.0784264,4.7058773,5.3333282,6.58823,7.215681,7.215681,7.843132,7.843132,7.215681,6.58823,6.58823,5.960779,5.3333282,4.7058773,4.0784264,3.4509754,2.8235245,2.8235245,2.8235245,2.8235245,2.1960735,2.8235245,2.8235245,3.4509754,3.4509754,4.0784264,4.7058773,4.7058773,5.3333282,5.3333282,5.960779,6.58823,6.5906715,7.843132,7.840681,7.215681,6.58823,5.960779,5.3333282,4.7058773,3.4509754,2.8235245,2.1960735,0.3137207,-0.31373024,-0.9411812,-2.196083,-2.823534,-3.450985,-3.450985,-3.450985,-2.196083,-2.196083,-1.5686321,-0.9411812,-0.9411812,-0.9411812,-0.9411812,-2.196083,-2.196083,-4.078436,-4.705887,-5.9607887,-6.5882397,-7.2156906,-8.4705925,-9.098043,-9.725494,-9.725494,-10.980396,-10.980396,-12.235298,-12.235298,-13.4902,-14.745102,-16.000004,-16.000004,-14.117651,-12.862749,-10.980396,-8.4705925,-7.2156906,-5.333338,-4.078436,-2.823534,-2.196083,-2.196083,-2.196083,-0.9411812,-0.9411812,-0.9411812,-0.9411812,-0.31373024,-0.9411812,0.3137207,0.3137207
0.3137207,0.3137207,0.3137207,0.3137207,0.3137207,0.3137207,-0.31373024,-1.5686321,-3.450985,-4.705887,-5.9607887,-6.5882397,-5.333338,-4.078436,-2.196083,-0.31373024,-0.31373024,0.94117165,0.94117165,2.1960735,2.8235245,4.0784264,4.7058773,5.960779,5.960779,7.215681,8.470583,10.352936,12.235289,13.4901905,13.4901905,12.235289,10.980387,9.098034,7.843132,5.960779,4.0784264,0.94117165,-0.31373024,-2.196083,-2.196083,-3.450985,-3.450985,-2.823534,-2.823534,-2.196083,-2.196083,-1.5686321,-0.9411812,-0.9411812,0.3137207,1.5686226,2.8235245,4.0784264,5.960779,6.58823,7.843132,7.843132,9.098034,9.725485,10.980387,12.86274,13.4901905,14.117641,14.745092,14.745092,14.117641,12.86274,10.352936,8.470583,5.3333282,2.8235245,-0.94117165,-4.078436,-7.2156906,-9.725494,-12.235298,-14.745102,-16.627455,-17.882357,-19.137259,-20.39216,-21.019611,-21.019611,-20.39216,-19.76471,-19.137259,-18.509808,-17.882357,-16.627455,-16.627455,-16.627455,-16.000004,-15.372553,-14.745102,-14.117651,-12.862749,-12.235298,-11.607847,-10.980396,-10.980396,-10.980396,-10.980396,-10.980396,-10.352945,-9.098053,-7.8431416,-5.3333473,-3.4509945,-0.9411812,1.5686226,3.4509754,5.3333282,6.58823,7.843132,8.470583,8.470583,9.725485,9.725485,10.980387,11.607838,12.235289,13.4901905,14.745092,15.372543,15.999994,16.627445,17.254896,17.254896,16.627445,17.254896,16.627445,15.999994,16.627445,15.372543,15.999994,15.372543,14.745092,14.117641,12.86274,11.607838,9.725485,7.215681,5.3333282,2.8235245,0.94117165,-0.9411812,-1.5686321,-2.196083,-2.823534,-2.196083,-1.5686321,-0.9411812,-0.31373024,0.3137207,1.5686226,2.1960735,2.8235245,3.4509754,4.0784264,4.7058773,5.3333282,5.960779,5.960779,6.58823,7.215681,7.215681,7.215681,6.58823,6.58823,5.960779,5.960779,5.3333282,5.3333282,4.7058773,4.7058773,4.7058773,4.0784264,4.0784264,4.0784264,4.0784264,3.4509754,4.0784264,4.0784264,4.0784264,4.0784264,4.0784264,4.7058773,4.7058773,4.7058773,5.3333282,5.3333282,5.3357697,6.58823,5.960779,5.3333282,4.7058773,4.0784264,2.8235245,2.8235245,1.5686226,0.3137207,-0.31373024,-0.9411812,-2.196083,-3.450985,-4.078436,-4.705887,-5.333338,-5.333338,-4.705887,-4.078436,-2.823534,-2.196083,-1.5686321,-0.9411812,-0.9411812,-0.9411812,-1.5686321,-2.196083,-2.823534,-4.078436,-4.705887,-6.5882397,-7.8431416,-8.4705925,-9.725494,-10.352945,-10.980396,-11.607847,-12.235298,-13.4902,-14.117651,-14.745102,-15.372553,-16.627455,-16.000004,-14.117651,-12.862749,-10.352945,-8.4705925,-6.5882397,-5.333338,-3.450985,-2.823534,-2.196083,-2.196083,-1.5686321,-0.9411812,-1.5686321,-1.5686321,-1.5686321,-0.9411812,-0.9411812,0.3137207,0.3137207
0.3137207,0.3137207,0.3137207,0.3137207,0.3137207,0.3137207,-0.31373024,-1.5686321,-2.823534,-4.078436,-5.333338,-6.5882397,-5.333338,-4.078436,-2.196083,-0.31373024,0.3137207,0.94117165,0.94117165,2.1960735,2.8235245,4.0784264,4.7058773,5.960779,7.215681,7.215681,8.470583,10.352936,12.235289,12.86274,12.235289,10.980387,9.725485,8.470583,6.58823,4.0784264,2.8235245,1.5686226,-0.31373024,-1.5686321,-2.196083,-2.823534,-2.823534,-2.823534,-2.196083,-2.196083,-1.5686321,-1.5686321,-0.9411812,-0.31373024,0.3137207,1.5686226,2.8235245,4.0784264,5.960779,5.960779,7.843132,7.843132,9.725485,9.725485,11.607838,12.86274,13.4901905,14.745092,14.745092,14.745092,14.117641,12.235289,10.980387,8.470583,5.960779,2.8235245,-0.31373024,-3.450985,-6.5882397,-9.098043,-12.235298,-14.117651,-16.000004,-17.882357,-19.76471,-19.76471,-20.39216,-20.39216,-19.76471,-18.509808,-17.882357,-17.254906,-16.000004,-16.000004,-16.000004,-15.372553,-15.372553,-14.745102,-14.745102,-14.117651,-12.862749,-12.235298,-11.607847,-10.980396,-10.980396,-10.980396,-10.980396,-10.352945,-9.725494,-8.4705925,-6.5882397,-4.705887,-2.1960926,-0.31373024,2.1960735,4.0784264,5.3333282,7.215681,7.843132,9.098034,10.352936,10.352936,11.607838,12.235289,13.4901905,14.117641,15.372543,15.999994,17.254896,17.882347,17.882347,19.137249,19.137249,18.509798,17.882347,18.509798,17.254896,17.882347,16.627445,16.627445,15.999994,15.372543,14.745092,12.86274,11.607838,9.725485,7.215681,5.3333282,2.8235245,0.94117165,-0.31373024,-1.5686321,-2.196083,-2.196083,-1.5686321,-0.9411812,-0.31373024,0.3137207,1.5686226,2.1960735,2.8235245,4.0784264,4.7058773,4.7058773,5.3333282,5.3333282,5.960779,5.960779,6.58823,5.960779,6.58823,5.960779,5.3333282,5.3333282,5.3333282,5.3333282,5.3333282,5.3333282,5.3333282,5.3333282,5.3333282,5.3333282,5.3333282,4.7058773,4.7058773,4.7058773,4.0784264,4.0784264,4.7058773,4.0784264,4.0784264,4.0784264,3.4509754,3.4509754,4.0784264,4.7058773,4.7034264,4.0808773,4.703436,3.4534264,2.8235245,2.1960735,1.5686226,0.3137207,-0.9411812,-1.5686321,-2.196083,-3.450985,-4.078436,-5.333338,-5.9607887,-5.9607887,-5.9607887,-6.5882397,-5.9607887,-4.705887,-4.078436,-2.823534,-1.5686321,-1.5686321,-0.9411812,-0.9411812,-0.9411812,-2.196083,-2.196083,-2.823534,-4.078436,-5.333338,-6.5882397,-8.4705925,-9.725494,-10.980396,-11.607847,-12.862749,-14.117651,-14.745102,-16.000004,-16.627455,-17.254906,-17.882357,-16.627455,-14.745102,-12.235298,-10.352945,-7.8431416,-5.9607887,-4.705887,-3.450985,-2.196083,-1.5686321,-1.5686321,-1.5686321,-1.5686321,-1.5686321,-2.196083,-2.196083,-0.9411812,-0.9411812,0.3137207,0.3137207
0.3137207,0.3137207,0.3137207,0.3137207,0.3137207,0.3137207,0.3137207,-0.9411812,-2.823534,-4.078436,-5.333338,-6.5882397,-5.333338,-4.078436,-2.196083,-0.9411812,-0.31373024,0.94117165,1.5686226,2.1960735,3.4509754,4.0784264,4.7058773,5.3333282,6.58823,7.215681,8.470583,9.725485,10.980387,10.980387,10.352936,9.725485,8.470583,7.215681,5.3333282,4.7058773,2.1960735,0.94117165,-0.31373024,-0.9411812,-1.5686321,-2.196083,-2.196083,-2.196083,-1.5686321,-1.5686321,-1.5686321,-0.9411812,-0.9411812,-0.31373024,0.3137207,1.5686226,2.8235245,4.0784264,5.3333282,6.58823,7.843132,7.843132,9.098034,10.352936,11.607838,12.86274,13.4901905,14.117641,14.745092,14.745092,14.117641,12.86274,10.352936,8.470583,5.960779,3.4509754,0.3137207,-2.823534,-5.9607887,-8.4705925,-11.607847,-13.4902,-16.000004,-17.254906,-18.509808,-19.137259,-19.137259,-19.76471,-18.509808,-17.882357,-16.627455,-16.000004,-14.745102,-14.117651,-14.117651,-14.745102,-14.745102,-14.745102,-14.745102,-13.4902,-12.862749,-12.862749,-12.235298,-11.607847,-11.607847,-10.980396,-10.980396,-9.725504,-9.098053,-7.8431416,-5.9607887,-4.078436,-2.196083,0.3137207,2.1960735,4.0784264,5.960779,7.215681,9.098034,9.725485,10.980387,11.607838,12.86274,14.117641,14.745092,15.999994,16.627445,17.882347,18.509798,19.137249,19.137249,19.7647,19.7647,19.7647,19.7647,19.137249,18.509798,18.509798,17.882347,17.254896,16.627445,15.999994,14.745092,13.4901905,12.235289,9.725485,7.843132,5.3333282,3.4509754,1.5686226,0.3137207,-0.9411812,-0.9411812,-0.9411812,-0.9411812,0.3137207,0.94117165,1.5686226,2.8235245,3.4509754,4.0784264,4.7058773,5.3333282,5.3333282,5.3333282,5.960779,5.960779,5.960779,5.3333282,5.3333282,4.7058773,4.7058773,4.0784264,4.0784264,4.0784264,4.7058773,5.3333282,5.3333282,5.960779,5.960779,5.960779,5.3333282,5.960779,5.3333282,5.3333282,5.3333282,4.7058773,4.7058773,4.7058773,4.0784264,4.0784264,3.4509754,3.4509754,3.4509754,2.8235245,3.4509754,2.8235245,2.8235245,2.8235245,2.1960735,0.94117165,0.3137207,-0.9411812,-2.196083,-2.823534,-3.450985,-4.078436,-4.705887,-5.9607887,-6.5882397,-7.2156906,-7.2156906,-7.8431416,-7.2156906,-6.5882397,-5.333338,-4.705887,-3.450985,-2.196083,-1.5686321,-1.5686321,-0.9411812,-1.5686321,-1.5686321,-2.196083,-3.450985,-4.705887,-5.9607887,-7.2156906,-9.098043,-10.352945,-12.235298,-13.4902,-14.745102,-15.372553,-16.627455,-17.254906,-18.509808,-19.137259,-19.137259,-19.137259,-15.372553,-12.235298,-9.725494,-7.8431416,-5.9607887,-4.705887,-2.823534,-2.196083,-1.5686321,-1.5686321,-0.9411812,-1.5686321,-2.196083,-2.196083,-2.196083,-1.5686321,-0.9411812,0.3137207,0.3137207
0.3137207,0.3137207,0.3137207,0.3137207,0.3137207,0.3137207,-0.31373024,-1.5686321,-3.450985,-4.705887,-5.9607887,-6.5882397,-4.705887,-3.450985,-2.196083,-0.9411812,-0.31373024,0.3137207,1.5686226,2.8235245,2.8235245,4.0784264,5.3333282,5.960779,6.58823,7.215681,8.470583,9.725485,9.098034,9.725485,9.725485,9.098034,7.843132,6.58823,5.3333282,4.7058773,2.8235245,2.1960735,0.3137207,-0.31373024,-0.9411812,-1.5686321,-1.5686321,-1.5686321,-1.5686321,-0.9411812,-0.9411812,-0.9411812,-0.31373024,0.3137207,1.5686226,2.8235245,4.0784264,5.3333282,5.960779,7.215681,7.843132,8.470583,9.098034,10.352936,10.980387,12.235289,13.4901905,14.117641,14.117641,14.117641,12.86274,11.607838,10.352936,8.470583,5.960779,3.4509754,0.94117165,-2.196083,-4.705887,-7.2156906,-9.725494,-12.862749,-14.745102,-16.000004,-17.254906,-18.509808,-18.509808,-18.509808,-17.254906,-16.627455,-15.372553,-14.117651,-13.4902,-13.4902,-13.4902,-14.117651,-14.117651,-14.745102,-14.117651,-14.117651,-13.4902,-12.862749,-12.862749,-12.235298,-11.607847,-11.607847,-10.352955,-10.352945,-8.4705925,-7.2156906,-5.9607887,-3.450985,-1.5686321,0.3137207,2.8235245,4.7058773,5.960779,7.843132,9.098034,10.352936,11.607838,12.86274,14.117641,14.745092,15.999994,16.627445,17.882347,18.509798,19.137249,19.7647,19.7647,19.7647,20.39215,20.39215,20.39215,20.39215,19.7647,19.7647,19.137249,18.509798,17.254896,16.627445,15.372543,14.117641,12.235289,10.352936,8.470583,5.960779,4.0784264,2.1960735,1.5686226,0.3137207,-0.31373024,0.3137207,0.94117165,1.5686226,2.1960735,2.8235245,4.0784264,4.7058773,5.3333282,5.960779,5.960779,5.960779,5.960779,5.960779,5.960779,5.3333282,4.7058773,4.0784264,3.4509754,2.8235245,2.8235245,3.4509754,3.4509754,4.0784264,4.7058773,5.3333282,5.3333282,5.960779,5.960779,5.960779,5.960779,5.960779,5.960779,5.3333282,5.3333282,4.7058773,4.7058773,4.0784264,3.4509754,3.4509754,2.8235245,2.1960735,2.1960735,2.1960735,2.1960735,2.1960735,1.5686226,0.94117165,-0.31373024,-1.5686321,-2.823534,-3.450985,-4.705887,-4.705887,-5.9607887,-5.9607887,-7.2156906,-7.8431416,-8.4705925,-8.4705925,-8.4705925,-7.8431416,-7.2156906,-6.5882397,-4.705887,-4.078436,-2.823534,-2.196083,-1.5686321,-1.5686321,-1.5686321,-2.196083,-2.196083,-3.450985,-4.705887,-5.333338,-7.8431416,-9.098043,-11.607847,-13.4902,-14.745102,-16.000004,-17.254906,-18.509808,-19.137259,-20.39216,-21.019611,-21.019611,-21.019611,-17.254906,-12.862749,-9.725494,-7.2156906,-5.333338,-4.078436,-2.823534,-1.5686321,-1.5686321,-1.5686321,-0.9411812,-1.5686321,-2.196083,-2.196083,-2.823534,-2.196083,-1.5686321,0.3137207,0.3137207
